ply
format ascii 1.0
element vertex 1182
property float x
property float y
property float z
property uchar red
property uchar green
property uchar blue
end_header
-0.069979 0.769808 0.351069 162 200 181
0.017005 0.104065 -1.024867 166 170 120
-0.211459 1.448106 0.036397 156 230 167
1.521956 -0.584134 -0.295916 233 139 152
-0.367031 -0.453372 0.127765 149 145 171
-0.492330 0.454409 -0.336947 143 186 150
0.155714 1.129424 0.234270 172 216 176
-0.033125 0.512562 1.327231 164 188 224
0.677068 1.518315 -0.576384 195 233 140
-0.262838 0.389498 -0.230331 154 183 155
0.050774 -0.794692 0.409258 168 130 184
-0.362062 -0.564911 -0.839418 149 140 128
-0.116630 -0.967844 -0.941585 160 122 123
-0.230160 0.068342 1.733968 155 168 243
0.001088 -0.000431 -0.395011 165 165 148
0.651386 -0.202654 -0.306129 194 156 152
-0.415223 0.060458 0.976627 147 168 209
0.343959 -1.246955 -0.213228 181 110 156
0.916641 0.660531 1.237344 206 195 220
0.225748 -0.345468 -0.087554 175 150 161
-0.049941 0.169627 0.706740 163 173 197
-0.199280 0.148949 -1.126798 156 172 115
-0.005457 0.013996 -1.346998 165 166 105
-1.096828 0.428264 -1.283061 116 184 108
0.094001 -0.108935 -0.416468 169 160 147
-0.390602 -0.688668 0.268744 148 135 177
0.508804 -0.302685 -0.856149 188 152 127
0.729134 1.326466 0.187884 198 224 174
-1.210530 -1.100186 -0.311341 111 116 151
-0.416837 0.299461 -0.258989 147 179 154
-0.337799 -0.197334 -0.709951 150 156 134
-0.996536 0.566774 -0.397811 121 191 147
-1.052342 -0.879424 0.264895 118 126 177
0.376313 -0.766373 -1.527019 182 131 97
-0.062353 -0.040595 -0.573201 162 163 140
-0.557094 0.452646 -0.080759 140 185 162
0.935845 -0.023240 -0.523111 207 164 142
-1.238333 -0.007103 0.632171 110 165 193
0.779123 -0.374465 -1.362727 200 149 104
-0.147186 0.003186 -0.483173 159 165 144
0.071530 -0.128227 0.677522 168 160 195
-0.084395 -1.149817 0.279634 161 114 178
-1.247354 -0.202415 -0.437346 110 156 146
-0.640178 -1.098512 -1.215589 137 116 111
0.497645 0.166025 -0.055006 187 173 163
0.063180 0.090354 0.754264 168 169 199
0.450596 -0.221514 -1.024093 185 155 120
-1.097101 -0.961567 0.390233 116 122 183
0.678966 -0.082310 -1.474503 196 162 99
-0.325338 0.179993 0.006244 151 173 166
-0.106893 -0.483286 0.680740 160 144 196
-0.757285 0.036949 -0.820897 131 167 129
-0.036214 0.913795 1.260971 164 206 222
0.801310 -1.451835 0.148362 201 100 172
-0.317588 -0.013330 -0.315698 151 165 151
-0.588129 0.405857 -0.387064 139 183 148
-0.216183 0.154480 -0.977372 156 172 122
0.333281 -1.286677 -0.167321 180 108 158
0.290745 0.983567 1.183699 178 209 218
0.207835 -0.214434 0.299288 175 156 179
0.068764 -0.591936 -0.446435 168 139 145
0.357400 -0.102775 1.015442 181 161 211
-0.126356 0.141357 -1.423573 160 172 102
0.385723 -0.535510 -1.676879 182 141 90
0.359304 -0.148144 0.378315 181 159 182
0.751864 -0.257053 0.090835 199 154 169
-0.142168 -0.563481 0.857120 159 140 203
-1.200680 -0.629786 -0.070747 112 137 162
1.594778 0.535101 0.169171 236 189 173
-0.562040 -0.290562 0.058837 140 152 168
0.117302 0.147727 0.786569 170 172 200
-0.374869 0.104169 1.099181 149 170 214
-0.617673 0.781117 0.821509 138 200 202
-0.106582 0.106218 -1.704937 160 170 89
0.212787 0.004124 -0.380943 175 165 148
-0.161989 0.039702 0.737218 158 167 198
-0.689232 -0.352963 0.793039 134 149 201
0.277550 0.975043 0.953503 178 209 208
-0.933524 -1.373142 -0.400916 124 104 147
-0.007065 0.043665 -0.559653 165 167 140
0.118468 -0.713334 -0.194669 171 133 157
-0.609882 0.661516 -0.412548 138 195 147
0.688035 0.536848 1.173318 196 189 218
0.042808 -0.015069 -1.738645 167 165 88
0.082854 -0.093792 0.408705 169 161 183
0.059323 -0.004865 0.726754 168 165 198
-0.367102 0.145943 1.116183 149 172 215
0.016563 -0.042525 1.368622 166 163 226
0.148548 0.179698 -1.735392 172 173 88
0.112930 0.078991 0.498220 170 169 187
-0.151296 0.212670 0.754635 158 175 199
0.937687 -0.324605 -0.243830 207 151 154
-1.157779 0.394154 0.624398 114 183 193
-1.372600 -0.701334 -0.876545 104 134 126
0.483356 -0.178226 -0.076024 187 157 162
0.342789 0.408375 -0.457033 181 183 145
-0.988284 0.259859 -0.500924 121 177 143
-0.266250 0.431968 1.188404 153 185 218
-1.487011 -0.593867 -0.323889 99 139 151
0.355257 -0.357248 0.112169 181 149 170
0.369519 -0.240382 -0.626213 182 155 137
0.575906 0.555305 0.659931 191 190 195
-0.145751 0.085126 1.384755 159 169 227
-0.887737 -1.393140 0.556010 126 103 190
-0.267155 -0.388565 0.082798 153 148 169
0.234744 -0.594411 0.319204 176 139 179
-0.200052 0.211073 0.930083 156 175 207
-1.132657 -0.081041 0.906709 115 162 206
1.674837 -0.196294 -0.459807 240 156 145
0.500262 0.030163 -0.124662 188 167 160
0.037909 0.011545 -0.767993 167 166 131
0.000129 -0.045429 1.117251 165 163 215
-0.464183 1.153681 -0.396869 145 217 148
-1.372012 -0.791884 -0.349116 104 130 150
0.452990 -0.110308 -0.081889 185 160 162
0.195146 -0.423616 0.580314 174 146 191
-0.439830 -0.940872 0.479813 146 123 187
-0.747437 0.363652 -1.019803 132 181 120
-0.857932 0.011160 1.611176 127 166 237
0.317504 0.176395 0.324502 179 173 180
0.406707 -0.493140 0.458812 183 143 186
0.418803 0.530064 0.842024 184 189 203
0.355832 1.164373 0.715878 181 217 197
0.227276 -0.577871 1.524894 175 139 233
0.010856 0.154213 -0.411689 166 172 147
-0.508460 -0.126988 -0.672412 143 160 135
-0.379262 0.720937 -0.592636 148 197 139
0.432700 1.211580 0.429729 185 219 184
-0.305588 1.479487 0.446587 152 231 185
0.461865 0.201352 0.236669 186 174 176
-0.637668 -0.105270 0.621276 137 161 193
0.075994 -0.178768 1.004287 169 157 210
0.372474 -0.830464 -0.993311 182 128 121
-0.051717 1.141931 -1.327157 163 216 106
-0.189164 -0.031855 0.364146 157 164 182
-0.112717 -0.035034 -0.676261 160 164 135
0.066423 0.654325 -0.822384 168 194 129
0.410344 -0.162815 1.375441 184 158 227
-0.120744 0.526124 1.549803 160 189 234
0.413539 0.190907 0.069810 184 174 168
0.408149 -0.646095 0.318529 183 136 179
0.989248 0.096781 0.472815 209 170 186
-1.342092 -0.381474 -0.054710 105 148 163
-1.506306 -0.658627 0.299077 98 136 179
-0.102885 0.400697 0.176690 161 183 173
0.147973 -0.305916 0.771680 172 152 200
0.874212 0.437978 0.260792 204 185 177
0.012512 -0.009302 -1.531966 166 165 97
-1.299768 0.626227 -1.079014 107 193 117
-0.062781 0.202378 0.337571 162 174 180
-0.041834 0.589645 -0.422841 163 192 146
-0.561404 -0.187193 1.011096 140 157 210
0.072007 0.057978 1.337649 168 168 225
0.028377 0.035935 1.653354 167 167 239
0.133000 -0.310307 0.335451 171 151 180
-0.186960 0.267041 0.758411 157 177 199
-0.125153 0.921909 0.538624 160 206 189
1.000930 -0.795316 0.292357 210 130 178
-0.748190 -0.631850 -1.334366 132 137 106
-0.074685 -0.104674 -0.425662 162 161 146
-0.077767 -0.040667 0.726026 162 163 198
0.377289 -0.620540 -0.800852 182 138 130
-0.875027 0.513755 0.777287 126 188 200
-0.813644 1.483633 -0.090423 129 231 161
0.139180 0.052679 0.519896 171 168 188
-0.399811 -0.572744 0.221528 147 140 175
0.626189 0.240227 -0.880060 193 176 126
-0.210774 0.169799 -1.505024 156 173 98
-0.263608 -0.470417 1.700310 153 144 241
-0.186970 -0.231353 0.478416 157 155 187
-0.024026 0.015600 -0.764770 164 166 131
0.759948 0.017901 -0.885186 199 166 126
0.457583 0.076897 -1.469910 186 169 100
-0.634826 -1.063295 1.125546 137 118 215
0.026163 -0.411701 0.403801 166 147 183
0.278385 0.216083 0.759773 178 175 199
0.265139 -0.986660 0.055345 177 121 168
0.979211 0.568423 0.716210 209 191 197
-1.432395 0.254963 0.744183 101 177 198
-0.330601 -0.016214 0.361590 150 165 181
0.640189 0.580613 -0.074340 194 191 162
0.993039 -0.088540 0.595703 210 161 192
-0.420542 0.320490 -1.282852 146 180 108
0.604929 -0.190206 1.606521 192 157 237
-0.288189 0.413384 -0.035250 152 184 164
-0.029353 0.701313 -0.426821 164 197 146
0.610501 0.917635 0.402983 192 206 183
1.384130 0.146890 -0.193592 227 172 157
-1.033780 -0.250564 -1.466915 119 154 100
0.066204 -0.332261 0.262892 168 150 177
0.572342 -0.655086 0.148297 191 136 172
-0.234929 -0.467080 1.002576 155 144 210
-0.414218 0.688222 1.060018 147 196 213
0.511114 -1.405938 0.603467 188 103 192
0.013147 0.557200 -0.035211 166 190 164
0.152519 -0.351276 -0.787522 172 150 130
-0.052638 0.045164 -1.127881 163 167 115
-0.099899 -0.050877 1.347157 161 163 225
0.016110 -0.569377 1.538042 166 140 234
0.284975 0.141564 0.537018 178 172 189
-0.211449 -0.636033 0.547756 156 137 190
1.057054 0.255220 -0.354280 212 177 149
0.279956 0.067439 1.322985 178 168 224
-0.742725 1.357307 -0.754639 132 226 132
-0.064262 0.153089 -0.604646 162 172 138
-0.144727 -0.317465 0.678332 159 151 196
0.542667 -0.746028 0.611962 189 132 193
0.184920 0.247790 1.376590 174 176 227
-1.013607 -0.807483 1.011187 120 129 210
-0.119147 0.427698 -0.019281 160 184 164
-0.284495 0.554011 -0.590113 153 190 139
0.544755 -0.624659 -0.732183 190 137 133
-0.532856 1.298944 0.046522 141 223 167
-0.443202 0.980575 1.197252 145 209 219
0.322114 0.090386 0.499543 180 169 188
0.249826 0.794648 0.170642 176 201 173
-0.229695 -0.860668 0.445917 155 127 185
0.270517 0.355770 -1.484475 177 181 99
1.067498 -0.990539 0.946007 213 121 207
-0.069123 0.305910 0.363606 162 179 181
-0.048485 0.018935 -0.782875 163 166 130
0.255876 0.671098 0.902153 177 195 206
0.794847 -0.591246 -0.849365 201 139 127
-0.355980 0.124730 -1.540903 149 171 96
-0.158590 0.009065 0.434474 158 166 185
-0.775850 0.143799 0.108657 131 172 170
-0.009785 0.002336 1.091546 165 165 214
-1.347648 -0.629089 0.361119 105 137 181
-0.102922 -0.769339 -1.545452 161 131 96
0.043897 -0.517048 0.001771 167 142 165
0.101853 0.176750 -0.720574 170 173 133
-0.572958 0.150718 -0.860972 140 172 127
-1.243696 -0.204712 -0.439464 110 156 146
-0.478700 1.025432 -1.143695 144 211 114
0.044756 -0.016043 -0.445499 167 165 145
0.139972 0.625649 -0.359999 171 193 149
0.854488 0.364671 0.749178 203 182 199
-0.450981 0.780036 -1.038926 145 200 119
-1.465699 0.609632 0.568190 100 192 191
0.041691 -0.173807 0.420411 167 157 184
-0.392677 0.622831 0.082923 148 193 169
0.071570 -0.497762 1.020550 168 143 211
0.799738 -0.655573 -0.987187 201 136 121
1.298204 -0.007797 1.007362 223 165 210
0.162755 0.329843 0.183932 173 180 173
-0.478503 -0.132346 0.440917 144 159 185
1.017125 0.344183 -0.327421 211 181 151
0.630334 -0.426905 1.223583 193 146 220
0.599021 1.556740 0.291551 192 235 178
0.597294 -0.003504 0.057836 192 165 168
0.466973 -0.102131 0.717525 186 161 197
0.408044 -0.930102 -0.186126 183 124 157
0.956547 -0.849963 -0.430175 208 127 146
-0.493923 0.829555 1.357345 143 202 226
0.207087 0.087287 -0.570470 174 169 140
0.500706 -0.178687 -0.520390 188 157 142
0.834161 0.411485 -0.579287 202 184 139
0.044116 -0.023656 1.494156 167 164 232
0.362709 1.580026 0.118100 181 236 171
0.124997 -0.086317 -0.413909 171 161 147
0.395498 0.406520 -0.489229 183 183 143
-0.774594 0.628887 0.309354 131 193 179
-0.515263 -0.106818 1.272550 142 160 222
-1.492551 0.293487 -0.781884 99 178 130
-0.343609 -0.278501 0.024952 150 153 166
0.400844 -0.492457 -0.606776 183 143 138
-0.648607 0.846671 0.185614 136 203 174
0.347744 0.700567 -1.227489 181 197 110
0.569310 -1.692063 0.192806 191 90 174
0.110825 -0.367129 0.053303 170 149 168
-0.155155 -0.017105 0.849015 158 164 203
-0.257198 0.300764 1.074395 154 179 213
0.770793 0.551173 -0.923083 200 190 124
-1.698617 -0.014660 0.076826 89 165 169
0.062237 0.342175 -0.055330 168 181 163
0.391603 0.114282 0.774553 183 170 200
-0.892660 -0.193201 0.631533 125 157 193
1.171380 -0.732257 0.026756 218 133 166
-0.199951 -0.734355 -1.416618 156 132 102
-0.459171 -0.037715 0.341581 145 164 180
0.702335 -0.201536 0.368734 197 156 182
-0.677174 0.805123 0.471721 135 201 186
-0.484230 0.211106 -1.191096 144 175 112
0.298917 1.636749 -0.427740 179 238 146
-0.038102 -0.327899 0.534289 164 151 189
0.401651 -0.616352 -0.111002 183 138 160
-0.202413 0.685561 -0.815214 156 196 129
-0.607971 -0.463806 1.260744 138 145 222
0.333515 1.342678 0.800324 180 225 201
0.136630 -0.157418 -0.329865 171 158 151
0.027487 0.036887 -0.906041 166 167 125
-0.379729 0.898753 0.310436 148 205 179
-0.000478 0.880756 -1.118877 165 205 115
-1.580822 -0.364584 0.346643 95 149 181
0.177627 0.290764 0.195578 173 178 174
-0.011511 0.316358 0.711438 165 179 197
0.303300 0.713714 0.701531 179 197 197
0.211914 -0.136390 -1.253812 175 159 109
-0.135007 1.045207 1.184021 159 212 218
0.300180 0.025343 0.431470 179 166 185
0.688080 0.545815 -0.077725 196 190 162
-0.082944 -0.083070 1.180524 162 162 218
0.090985 0.025855 1.312325 169 166 224
0.762562 -0.081361 -1.474126 199 162 99
0.089851 -0.305623 0.276356 169 152 178
0.102668 -0.679712 -0.507243 170 135 143
0.243127 1.027708 0.158068 176 211 172
0.148679 -0.085573 -1.303961 172 161 107
1.594625 0.013166 0.314536 236 166 179
-0.065973 -0.088681 0.358097 162 161 181
-0.355428 0.268397 -0.604708 149 177 138
-0.754754 -0.788060 -0.048629 132 130 163
-0.800752 -0.658669 1.056354 130 136 212
0.596757 1.341498 -0.677469 192 225 135
-0.302798 -0.101591 0.318070 152 161 179
0.183960 0.575316 0.460552 173 191 186
0.505255 0.914332 0.375513 188 206 182
0.699710 1.194138 -0.335245 196 219 150
-1.548532 -0.239917 0.248087 96 155 176
-0.372119 0.242378 0.319006 149 176 179
0.056492 -0.010814 0.782157 168 165 200
0.149186 -0.705810 -0.997731 172 134 121
-1.137327 -0.439656 0.531818 114 146 189
-0.558187 -0.128456 -1.509611 140 160 98
-0.046151 0.065565 0.438013 163 168 185
0.138888 0.321639 -0.850143 171 180 127
1.103405 -0.255475 0.058295 214 154 168
-0.326477 0.921418 -1.038743 151 206 119
0.420440 1.501266 -0.717753 184 232 133
-0.210641 -0.393382 0.092736 156 148 169
-0.031943 0.019366 -0.711803 164 166 133
-0.085596 0.078897 1.091023 161 169 214
0.515467 -0.102671 1.382888 188 161 227
-0.994483 1.210846 -0.457042 121 219 145
-0.135388 -0.045194 0.435306 159 163 185
0.133378 0.426024 -0.740769 171 184 132
-0.004579 -0.572061 0.987714 165 140 209
0.712013 0.267126 1.137960 197 177 216
0.665866 -1.147731 0.996357 195 114 210
0.234427 -0.354859 0.220898 176 149 175
0.072405 -0.641280 0.299381 168 137 179
-0.101923 0.891513 -0.678285 161 205 135
0.339538 -1.415118 0.005724 180 102 166
1.136372 -0.568885 -1.115017 216 140 115
-0.268497 0.122530 0.345649 153 171 181
-0.011333 -0.080556 -0.748769 165 162 132
0.225684 -0.021788 1.096222 175 164 214
0.878431 -1.042137 0.276686 204 119 178
0.374126 0.286573 -1.718060 182 178 89
-0.090711 0.072651 0.537940 161 168 189
-0.048377 0.576933 -0.425855 163 191 146
-0.275226 -0.999770 -0.294806 153 121 152
0.786187 -1.173476 0.411692 200 113 184
0.410288 -1.221811 -1.180801 184 111 113
-0.087539 0.063273 -0.420270 161 168 146
0.453223 0.436004 -0.330017 185 185 151
0.105180 -0.978447 -0.706793 170 122 134
-1.361191 -0.386616 -0.076937 105 148 162
-0.094307 -0.814048 1.368278 161 129 226
-0.462526 0.056140 0.028619 145 168 167
-0.161287 -0.008130 -0.907732 158 165 125
-0.999977 0.130225 -0.329603 121 171 151
-0.613916 -1.198853 -0.553595 138 112 141
-1.020594 1.438180 -0.460744 120 229 145
-0.394839 -0.412410 0.193425 148 147 174
0.100313 0.680901 0.626122 170 196 193
-1.089087 0.417534 -0.112333 117 184 160
-0.037776 0.968090 0.914978 164 208 206
1.069892 0.067534 -1.195158 213 168 112
0.048705 0.054390 0.487349 167 168 187
-0.411226 -0.459367 0.547648 147 145 190
0.239858 -0.142966 1.049565 176 159 212
0.831071 -0.124979 1.102947 202 160 214
-0.229246 -0.046796 1.664265 155 163 240
-0.164428 -0.043163 0.495009 158 163 187
-0.241397 -0.378203 0.682640 154 148 196
0.925489 0.074900 -0.743353 207 169 132
-0.153755 0.979628 -1.095306 158 209 116
-0.394004 0.359540 -1.714956 148 181 89
0.192048 -0.306174 0.380555 174 152 182
0.188107 -0.122246 -0.814008 174 160 129
0.023305 -0.069790 -1.048153 166 162 118
1.093465 0.328841 0.876377 214 180 204
1.258396 -0.673077 -0.931869 221 135 124
0.491171 0.015627 -0.333495 187 166 150
0.154889 -0.566233 0.384347 172 140 182
0.290338 1.077043 -0.079551 178 213 162
-0.518646 0.540690 1.240674 142 189 221
-1.160663 0.964296 -0.669547 113 208 135
0.245914 0.363368 -0.375547 176 181 148
-0.773847 0.332522 0.253158 131 180 177
0.196145 0.156408 -1.122853 174 172 115
-0.277409 -0.095642 1.463687 153 161 231
-0.814716 1.440742 0.038130 129 230 167
-0.125377 -0.010619 0.368272 160 165 182
0.070954 0.332926 0.808061 168 180 201
0.247838 -0.177360 1.044693 176 157 212
-0.746778 -1.265856 0.153782 132 109 172
-0.293952 0.057821 -1.764024 152 168 87
-0.010747 0.470076 0.073237 165 186 169
0.319845 -0.693698 -0.337168 180 134 150
0.088935 0.778715 0.692992 169 200 196
0.121374 0.023401 -1.443538 171 166 101
0.430631 -1.364351 1.055131 184 104 212
0.047900 -0.043988 -0.530588 167 163 142
0.339081 0.000933 0.645621 180 165 194
1.142841 0.105406 0.086571 216 170 169
-0.530211 0.895520 -1.008023 142 205 120
0.313603 1.322623 1.091735 179 224 214
-0.283419 0.138985 -0.222941 153 171 155
-0.303700 0.107427 -0.771657 152 170 131
0.211969 0.249143 -0.929798 175 176 124
0.999696 0.686188 -0.910716 210 196 125
1.049060 1.127993 -0.818485 212 216 129
-0.319230 -0.415160 0.047443 151 147 167
0.167905 -0.027703 -0.777853 173 164 131
0.514453 1.043165 0.078751 188 212 169
-0.126151 1.174625 0.781213 160 218 200
-0.523156 1.344022 -0.797823 142 225 130
0.527309 -0.093176 -0.261069 189 161 154
0.317548 0.663212 -0.471517 179 195 144
0.092057 -0.130152 -0.997112 169 159 121
-1.123839 -0.276449 -0.600210 115 153 138
1.434667 1.079360 0.198402 229 213 174
0.053799 -0.054286 -0.510925 168 163 142
-0.096296 -0.243023 0.830501 161 154 202
0.071463 0.864271 0.682055 168 204 196
1.179862 0.416789 -0.521609 218 184 142
0.288132 -0.376240 -1.636036 178 148 92
-0.263962 0.111055 0.471513 153 170 186
0.105556 -0.586605 0.452491 170 139 185
-0.645902 -0.416121 -0.711206 136 147 134
-0.312676 0.036486 1.303500 151 167 223
0.485194 -1.113756 -1.148368 187 116 114
0.054749 0.109579 0.517238 168 170 188
-0.011654 0.071502 0.857627 165 168 204
-0.071088 -0.024670 -1.061145 162 164 118
0.514317 -0.162112 1.380231 188 158 227
-0.058906 1.278072 -1.028430 163 222 119
-0.030286 -0.046601 0.428745 164 163 184
0.399227 0.482222 -0.406754 183 187 147
-0.071040 -0.930001 0.396465 162 124 183
-0.694395 -0.234911 -1.135751 134 155 115
-0.581816 -0.031268 -1.514273 139 164 98
0.326568 -0.136632 0.219798 180 159 175
0.314755 -0.028839 0.787100 179 164 200
-0.002023 0.052009 -1.071752 165 168 117
-0.063410 -0.449186 -1.285310 162 145 108
-1.319348 -1.078837 -0.031505 106 117 164
0.219360 -0.077466 -0.557273 175 162 140
0.528635 0.695192 -0.123762 189 196 160
-0.436098 0.239366 1.043399 146 176 212
-0.762536 0.111249 1.261135 131 170 222
-0.972899 0.150161 -1.424736 122 172 102
-0.240958 0.248196 -0.325115 154 176 151
0.098389 -0.590559 -0.497868 170 139 143
-0.612644 0.606984 0.869665 138 192 204
-0.432664 0.447748 1.341455 146 185 225
0.842862 0.028006 -1.331611 203 166 106
0.174319 0.210583 0.460073 173 175 186
-0.521674 0.058025 -0.531790 142 168 142
0.100668 -0.055671 -1.093832 170 163 116
1.111279 0.329952 -0.801844 215 180 129
-1.454025 -0.313872 -0.821258 100 151 129
-0.146687 -0.398886 0.235672 159 147 176
0.028709 -0.325445 -0.786913 167 151 130
-0.049101 -0.017233 -1.209589 163 164 111
-0.038220 -0.075314 1.358440 164 162 226
0.646410 0.766048 1.450668 194 199 230
-0.019753 -0.091406 0.500784 164 161 188
-0.244153 -0.187092 -0.695011 154 157 134
0.300882 1.084935 0.170165 179 214 173
1.293819 -0.205022 -0.032708 223 156 164
-1.051755 -0.879986 -0.805425 118 126 129
-0.243464 0.017481 0.377828 154 166 182
-0.145839 -0.534064 -0.652690 159 141 136
0.011048 0.045852 1.100896 166 167 214
-1.271073 -0.416153 -0.195414 109 147 157
-1.135668 -1.068831 -0.398143 115 118 147
0.322826 -0.377358 0.131457 180 148 171
0.335981 -0.802909 0.122027 180 129 171
-0.118049 -0.132667 -1.061001 160 159 118
0.612294 -1.320297 0.189708 193 106 174
-0.239885 0.868588 -1.341749 155 204 105
0.083147 -0.371134 0.271603 169 149 177
-0.189406 -0.620891 -0.282115 157 138 153
0.320189 0.086390 -0.974713 180 169 122
-1.383951 -0.274884 -0.201140 103 153 156
-0.666649 -0.567202 1.495130 136 140 232
0.314509 -0.238903 0.118428 179 155 171
0.130122 -0.066565 0.763861 171 162 199
-0.013590 -0.036613 1.063762 165 164 213
0.367045 -1.118458 -0.521727 182 115 142
0.170008 -0.119675 1.651993 173 160 239
0.093992 -0.209716 -0.372918 169 156 149
0.346580 -0.068830 -0.672381 181 162 135
-0.902326 -0.019221 -0.557405 125 164 140
0.410539 -1.337905 -0.384133 184 106 148
-0.491752 0.201605 -1.505133 143 174 98
-0.017606 -0.074261 -0.587762 164 162 139
0.034116 0.582391 0.539835 167 191 189
1.076706 0.514096 0.367901 213 188 182
-0.595762 0.845279 -0.844594 139 203 128
0.156705 -0.043885 -1.628571 172 163 93
0.412986 -0.147253 -0.312001 184 159 151
0.114554 -0.561483 0.416220 170 140 184
0.890513 0.402227 -0.530699 205 183 142
-0.556365 0.398647 -1.246468 140 183 110
-0.179689 -1.156635 -1.223176 157 114 111
-0.251082 0.084817 -0.444925 154 169 145
0.546060 -0.486710 0.336789 190 144 180
-0.317762 -0.894316 -0.529220 151 125 142
-1.301131 -0.281657 -0.452075 107 153 145
1.205358 -0.785492 -0.859488 219 130 127
0.190516 -0.199694 0.430257 174 156 184
0.321183 0.215420 0.632555 180 175 193
-0.468602 1.136569 0.081164 144 216 169
0.816953 -0.181929 1.095647 202 157 214
0.579646 -0.302968 1.682322 191 152 240
0.253986 -0.430435 -0.281568 177 146 153
0.401940 -0.673259 0.212042 183 135 175
0.543320 -0.719338 0.505235 189 133 188
0.810489 0.950462 -0.456237 201 208 145
0.880203 1.441299 -0.332123 205 230 150
0.047086 -0.078829 0.444014 167 162 185
-0.693169 -0.494063 -0.231040 134 143 155
0.935749 -0.341920 -0.053566 207 150 163
0.033943 0.845762 1.102228 167 203 214
-0.283210 -0.146857 -1.695333 153 159 90
0.550240 -0.184840 0.277497 190 157 178
-0.350934 0.204036 -0.765686 150 174 131
-0.550735 0.002611 1.003059 141 165 210
0.299735 -0.355914 -1.424138 179 149 102
-0.713534 -1.165803 0.929970 133 113 207
-0.042411 0.538596 -0.068554 163 189 162
-0.628623 0.638077 -0.059078 137 194 163
0.358912 0.984953 0.300011 181 209 179
-0.018075 0.102885 -1.462950 164 170 100
1.373491 0.429761 1.022014 227 184 211
0.510011 -0.138667 -0.042092 188 159 163
0.573577 0.433184 0.244247 191 185 176
0.741647 0.556873 0.567486 198 190 191
0.261112 -1.061154 -0.735955 177 118 132
0.473813 -0.101973 -1.661811 186 161 91
0.177041 0.237591 0.353342 173 176 181
0.398626 -0.159348 0.820302 183 158 202
1.009574 -0.040034 0.169486 210 163 173
0.184343 -0.091799 -1.324335 173 161 106
0.190407 1.172383 1.347800 174 218 225
-0.057315 0.277859 0.343994 163 178 181
0.465448 0.582653 -0.282318 186 191 153
-0.684884 0.110282 -0.800016 135 170 130
0.087124 1.236530 -0.355872 169 220 149
-1.685899 -0.355775 0.472157 90 149 186
0.083757 -0.216940 0.477784 169 156 187
-0.057186 0.272333 0.811093 163 177 201
-0.091924 0.850489 -0.757482 161 203 131
-1.149483 0.224323 0.677704 114 175 195
-0.527062 -1.088671 1.332270 142 117 225
0.222219 -0.293083 0.220446 175 152 175
0.465491 -0.372558 0.659048 186 149 195
-1.069310 -0.239110 0.003291 118 155 165
0.284201 -0.844888 -1.217677 178 128 111
-0.255907 -0.116417 -1.655522 154 160 91
0.290039 0.060178 -0.483897 178 168 144
0.741887 0.285990 0.363699 198 178 181
-0.000562 -0.008293 -1.075470 165 165 117
0.934009 -1.018190 0.353643 207 120 181
0.114990 1.238943 1.004821 170 221 210
-0.334251 0.031609 0.455281 150 167 186
0.688310 -0.290292 0.046816 196 152 167
0.656380 -0.324678 0.794024 195 151 201
0.266993 -0.280447 -1.287811 177 153 108
-0.765894 1.505265 -0.013097 131 232 165
-0.122519 -0.170638 -0.378121 160 158 148
0.559233 -0.521496 -0.222598 190 142 155
0.572672 -0.080604 0.846300 191 162 203
1.239682 -0.596022 0.184693 221 139 173
-0.140727 0.909726 -1.544886 159 206 96
-0.476756 0.152505 0.022774 144 172 166
-0.059518 0.041749 -0.705066 163 167 134
-0.789546 -0.695882 -0.218418 130 134 156
0.033939 -0.163139 -1.304006 167 158 107
1.577979 -0.106515 0.718226 236 160 197
-0.049426 0.368831 0.503601 163 182 188
0.266112 -0.627429 -0.467836 177 137 144
0.696613 -0.895631 -0.353781 196 125 149
-0.324016 -1.302854 -0.570673 151 107 140
0.647800 -0.748477 1.316945 194 132 224
0.378298 -0.312715 0.227745 182 151 175
-0.532789 0.437360 0.496748 141 185 187
-0.431675 -0.976718 -0.211869 146 122 156
-0.132784 0.963467 -1.059370 159 208 118
-0.431932 -0.904774 1.413423 146 125 228
0.025907 0.030981 -0.443618 166 167 145
-0.203773 -0.396281 -0.718031 156 148 133
0.000392 -0.029487 1.111454 165 164 215
0.182177 -0.129386 -1.317710 173 159 106
-1.205019 0.971084 -0.820667 111 209 129
0.035406 0.149206 -0.421260 167 172 146
0.047059 -0.007893 -0.833750 167 165 128
-0.151643 0.205409 -1.074627 158 174 117
-0.401335 -0.584548 -1.139489 147 139 114
0.704284 -0.179486 1.627749 197 157 238
0.053302 0.325714 0.307587 168 180 179
0.007747 0.014917 0.674663 166 166 195
0.036134 0.819857 0.900009 167 202 205
-0.398597 0.217053 -1.262015 147 175 109
0.819022 -1.429475 -0.182989 202 101 157
0.033250 0.465516 0.110914 167 186 170
0.308313 0.062691 0.800279 179 168 201
0.243996 0.980850 0.646901 176 209 194
1.452858 0.008067 -0.523317 230 166 142
0.018788 -0.216679 1.629528 166 156 238
0.021868 -0.241149 0.420226 166 154 184
0.317034 -0.726540 -0.259331 179 133 154
0.133454 -0.198931 -1.078423 171 156 117
0.960221 -1.104790 -0.332450 208 116 150
1.492610 0.504333 -0.829865 232 188 128
0.153442 0.390504 0.401209 172 183 183
0.568363 -0.442508 -0.271914 191 146 153
0.801887 0.265695 -0.609510 201 177 138
0.093243 0.315690 -1.338139 169 179 106
-0.685106 -0.870779 -1.201308 135 126 112
-0.089921 -0.056854 0.518089 161 163 188
-0.375626 0.121128 0.582785 148 171 191
0.348301 0.254171 1.023603 181 177 211
-0.214753 -0.275600 -1.363529 156 153 104
0.215149 -0.549931 -1.587874 175 141 94
0.147034 -0.144385 0.545269 172 159 190
-0.418511 0.653795 -0.153389 147 194 158
0.124479 0.062299 -1.063879 171 168 118
-0.532745 -0.468332 -1.115106 141 144 115
0.589395 -1.581422 -0.192325 192 95 157
-0.316594 0.265348 0.093755 151 177 169
0.271020 0.127755 -0.769429 177 171 131
0.939349 0.305306 0.249650 207 179 176
-0.084548 0.201990 1.355054 161 174 226
-1.730312 0.229862 0.162890 88 176 173
0.223462 -0.370828 0.336231 175 149 180
0.198494 -0.087688 0.890483 174 161 205
0.342470 -0.134648 -1.114473 181 159 116
-0.190866 -0.012962 1.382469 157 165 227
0.643289 -0.204049 1.512395 194 156 233
-0.521986 0.168420 0.145755 142 173 172
0.440777 0.618258 0.331629 185 193 180
-0.471045 0.671461 -0.639544 144 195 137
-0.087731 0.098334 -1.301917 161 170 107
0.565460 1.096290 -0.983162 190 214 121
-0.271931 -0.125821 0.220123 153 160 175
0.591106 0.366025 0.449675 192 182 185
-0.305501 -0.242730 1.114750 152 154 215
0.131891 -0.121647 -1.408231 171 160 102
-1.300954 -1.140367 -0.035668 107 114 164
-0.031892 0.091368 0.565728 164 169 190
0.486924 -0.326626 0.521738 187 151 189
0.755076 -0.855104 -0.210991 199 127 156
0.085778 -0.719667 -1.168295 169 133 113
-0.178334 1.558177 -0.319240 157 235 151
-0.004052 0.035841 -0.463027 165 167 145
-0.465721 0.614914 0.144295 144 193 172
-0.729180 0.577252 0.347078 133 191 181
0.881439 -0.738463 -0.913495 205 132 124
-0.335707 -0.110904 1.576977 150 160 236
0.130554 0.335069 -0.330629 171 180 150
-0.296976 0.334519 -0.745020 152 180 132
0.194714 -0.106297 -1.110507 174 161 116
0.400450 -0.360406 1.298318 183 149 223
-1.490030 0.745346 0.271967 99 199 177
0.270444 -0.349108 0.433112 177 150 185
-0.135474 0.511718 -0.663107 159 188 136
-1.055832 0.096820 0.452256 118 170 185
-0.775938 -1.050811 -0.517483 131 118 142
1.426856 0.957925 0.357202 229 208 181
-0.039234 0.149901 0.437752 163 172 185
-0.744804 -0.312748 0.151419 132 151 172
0.365806 0.777957 -0.708355 182 200 134
0.033098 0.001888 -1.390293 167 165 103
-0.663313 -1.087755 1.032715 136 117 211
0.062002 -0.058213 -0.592847 168 163 139
-0.384812 -0.242486 -0.651822 148 154 136
0.923496 0.719546 -0.028064 206 197 164
0.649747 0.421232 1.261681 194 184 222
-0.635673 0.599996 1.467881 137 192 231
-0.023166 0.404391 -0.196561 164 183 156
-0.314056 0.694663 -0.535990 151 196 141
0.066769 0.096118 -1.003792 168 170 120
-0.989288 0.244890 -1.005601 121 176 120
0.035003 -0.210587 -1.649843 167 156 92
0.130249 0.146027 -0.334754 171 172 150
0.299237 -0.182148 0.743767 179 157 198
0.042401 -1.061317 0.087358 167 118 169
-0.030792 0.021561 1.468970 164 166 231
0.029902 0.884889 -1.515459 167 205 98
-0.327619 0.079394 -0.185758 151 169 157
0.024786 0.212936 0.795017 166 175 201
0.912960 -0.479196 -0.251527 206 144 154
-0.934931 0.877457 0.414514 124 204 184
0.554402 -1.066958 1.147123 190 118 216
-0.048456 0.037050 0.575272 163 167 191
0.058722 -0.091951 -0.853771 168 161 127
0.532850 0.153637 -0.991011 189 172 121
0.222062 -0.020087 1.365074 175 164 226
-0.039437 -0.082090 1.774631 163 162 244
0.142917 -0.094401 -0.536735 172 161 141
0.699403 -0.232035 -0.378987 196 155 148
0.856567 0.121122 -0.744845 203 171 132
0.685894 -0.901501 -0.895592 196 125 125
-1.255880 0.981036 -0.223274 109 209 155
0.534853 -0.015652 0.199231 189 165 174
0.684236 -0.396109 0.222233 196 148 175
-0.262202 -0.425330 -0.999272 154 146 121
0.013020 0.731711 1.343817 166 198 225
1.583966 -0.753263 0.236648 236 132 176
0.121418 0.024344 -0.500614 171 166 143
-0.314105 -0.683732 0.414286 151 135 184
0.828242 0.319920 -0.675672 202 180 135
-0.322023 0.884930 -0.917773 151 205 124
0.274530 -0.952648 -1.302663 178 123 107
0.033244 0.003353 -0.545148 167 165 141
-0.185527 0.170265 0.851840 157 173 203
-0.220774 -0.188913 -0.966888 155 157 122
-0.102114 0.868909 1.111059 161 204 215
0.789914 1.505487 -0.126651 200 232 160
-0.296139 -0.275624 0.087123 152 153 169
0.538222 -0.525997 -0.378122 189 142 148
-0.580486 -0.154297 0.868717 139 158 204
0.756640 0.238266 1.019704 199 176 211
0.577947 1.135699 -1.189856 191 216 112
-0.447327 0.268151 -0.137456 145 177 159
0.070274 0.188517 0.847626 168 174 203
-0.248431 -0.711540 -0.821321 154 133 129
-0.253321 -0.468368 -1.216440 154 144 111
0.642326 1.033966 -1.003209 194 211 120
-0.001593 -0.139540 0.364328 165 159 182
0.007920 0.015197 -0.818404 166 166 129
-0.036826 1.035195 0.525393 164 211 189
0.268329 -0.722285 1.162234 177 133 217
-1.189910 -0.445398 1.060104 112 145 213
-0.209678 -0.075439 -0.433636 156 162 146
-0.025039 -0.156162 0.784494 164 158 200
0.105700 -0.516572 1.069002 170 142 213
0.127973 -0.107337 1.467765 171 160 231
0.228765 0.327077 -1.593856 175 180 94
0.329042 0.337595 -0.099121 180 180 161
0.138165 0.605922 -0.374190 171 192 149
-0.402040 -1.011243 0.094753 147 120 169
0.651627 1.001558 0.895015 194 210 205
-0.346841 -1.336578 -0.862285 150 106 127
-0.059786 0.077414 -0.392057 163 169 148
0.026689 0.135395 0.771716 166 171 200
-0.459253 0.443050 -0.913176 145 185 124
-0.218973 1.304763 0.349977 155 223 181
1.098491 0.338563 1.302630 214 180 223
0.284458 -0.119588 -0.541487 178 160 141
-0.193892 -0.703922 0.585331 157 134 191
0.001587 -1.038919 -0.351849 165 119 150
-0.093724 -0.067987 1.349424 161 162 225
0.321597 -1.727240 0.071655 180 88 168
0.411381 0.284826 0.266853 184 178 177
0.331259 -0.438754 -0.433196 180 146 146
1.139422 0.146096 -0.134328 216 172 159
-0.759398 0.977148 -0.450491 131 209 145
0.355083 -0.251356 -1.644652 181 154 92
-0.454649 -0.095775 -0.210136 145 161 156
-0.000522 -0.096124 0.824236 165 161 202
-0.077268 -0.440888 1.065000 162 146 213
-0.208062 0.328648 -1.223198 156 180 111
-0.012061 -0.642910 1.550786 165 137 234
-0.337443 0.361790 0.068387 150 181 168
-0.180447 0.705204 0.399840 157 197 183
0.159813 -1.002860 -0.531482 172 120 142
0.798075 0.799770 0.883864 201 201 205
0.505224 0.085284 -1.668079 188 169 91
-0.328671 -0.378349 -0.028559 151 148 164
-0.072140 -0.042509 0.856670 162 163 203
0.017286 -0.067393 -1.136408 166 162 115
-1.120733 -0.730611 0.341443 115 133 180
0.569480 1.537730 -0.074735 191 234 162
-0.361329 0.329235 -0.001428 149 180 165
-0.417587 -0.057437 0.622108 147 163 193
0.386607 0.494956 -0.756017 183 187 132
-0.695226 -0.118823 -1.179879 134 160 113
-0.885319 0.864738 1.142381 126 204 216
-0.015050 -0.071627 -0.549425 165 162 141
-0.515608 -0.609275 -0.011475 142 138 165
-0.867710 0.080645 -0.657786 127 169 136
-0.925654 -0.290025 -0.965627 124 152 122
-0.416680 -0.921294 1.360717 147 124 226
0.091783 -0.077224 0.483615 169 162 187
-0.128166 0.758361 0.211874 160 199 175
-0.379161 -0.972687 0.447030 148 122 185
-1.488718 -0.008887 -0.058238 99 165 163
0.482918 -0.295230 -1.670121 187 152 91
0.245029 0.374214 0.149235 176 182 172
0.764527 -0.009214 0.217112 199 165 175
-0.917297 -0.680497 -0.271634 124 135 153
0.066609 1.346336 0.111860 168 225 170
-0.778536 0.684075 1.247838 131 196 221
-0.067935 0.478428 -0.171605 162 187 158
-0.575405 -0.390372 -0.253520 140 148 154
0.871920 -0.022864 0.557026 204 164 190
0.679493 0.385048 -1.069321 196 182 118
-0.012414 -0.107280 -1.729494 165 160 88
0.254572 0.189584 0.488907 177 174 187
0.557588 -0.219724 0.421789 190 155 184
-0.262218 1.020588 -0.406856 154 211 147
-0.437501 1.321643 0.098002 146 224 170
-0.287484 0.626628 1.539566 152 193 234
-0.028562 -0.534663 -0.078455 164 141 162
-0.546582 -0.476560 0.452698 141 144 185
-0.908168 -0.077038 -0.446977 125 162 145
-0.482641 -0.128697 1.416726 144 160 228
0.071829 -0.788844 1.398811 168 130 228
-0.048420 0.035334 -0.393179 163 167 148
-0.041554 0.000955 -0.809456 163 165 129
1.013238 0.223698 -0.333931 210 175 150
-0.449112 -1.320384 0.594818 145 106 192
0.866971 -0.462459 1.442083 204 145 230
0.179984 -0.268788 -0.356992 173 153 149
-0.142161 -0.476427 0.539950 159 144 189
-0.417875 -0.622286 0.917813 147 137 206
-0.328954 1.124102 0.713536 151 215 197
-0.717881 -0.169824 1.621090 133 158 238
-0.374488 0.332161 0.012909 149 180 166
0.666272 0.504973 -0.077525 195 188 162
0.478709 -0.353540 -0.833849 187 149 128
-0.485518 -0.578682 1.202744 144 139 219
-0.975113 1.475628 -0.073715 122 231 162
-0.097707 0.062653 0.435342 161 168 185
-0.277395 -0.152715 -0.799795 153 158 130
1.100910 0.040533 0.155375 214 167 172
-0.371934 -0.961581 0.950931 149 122 208
-0.285100 1.282445 0.906761 153 222 206
0.323713 -0.297805 0.101443 180 152 170
-0.475886 -0.377943 0.650777 144 148 194
0.255869 0.406032 -1.060381 177 183 118
-0.048301 -0.044958 -1.312647 163 163 107
-0.804284 -0.132909 -1.469257 129 159 100
-0.146257 -0.322678 -0.428112 159 151 146
-0.067748 -0.831808 -0.397889 162 128 147
-0.361458 0.453810 0.837079 149 186 203
0.096884 -0.420946 1.422101 170 146 229
1.580179 -0.577437 -0.202148 236 139 156
0.351922 0.191142 -0.344476 181 174 150
-0.041762 -0.089032 0.903762 163 161 206
0.555378 -0.392939 0.929810 190 148 207
0.547319 1.378652 -0.159864 190 227 158
0.022215 -0.069600 1.814917 166 162 246
-0.196940 -0.354251 -0.382810 156 149 148
0.701283 0.422059 0.092150 197 184 169
0.666739 -0.948108 -0.116691 195 123 160
1.416394 0.364375 0.136607 228 182 171
1.236472 1.160278 -0.237646 220 217 155
-0.043962 0.311763 0.512759 163 179 188
-0.703873 0.195629 0.150816 134 174 172
0.959515 -0.321724 -0.470358 208 151 144
0.128121 -0.346183 1.250639 171 150 221
0.618566 0.140496 1.607119 193 172 237
0.130509 -0.238409 0.459313 171 155 186
0.154232 0.125105 -0.851167 172 171 127
0.565267 -0.750434 -0.530955 190 132 142
-0.127250 -1.398926 -0.311392 160 103 151
0.588800 1.021421 -1.083392 192 211 117
-0.421670 -0.202685 -0.257448 146 156 154
0.085754 0.152872 -0.702140 169 172 134
0.438851 -0.835212 0.653525 185 128 194
0.140627 0.444568 1.259053 172 185 221
-1.200409 0.188695 1.228326 112 174 220
-0.266131 0.233656 -0.471706 153 176 144
0.601732 0.451676 -0.181216 192 185 157
0.045171 -0.026336 -1.111380 167 164 116
-0.198596 0.921294 1.113534 156 206 215
0.971055 -0.839380 1.202692 209 128 219
0.375683 -0.201903 0.045398 182 156 167
0.006418 0.036253 0.826851 166 167 202
-0.337188 0.409934 -0.901931 150 184 125
0.031671 -0.111576 -1.395179 167 160 103
-1.109921 1.077262 0.763504 116 213 199
-0.509459 0.278188 -0.139755 143 178 159
-0.574231 -0.088643 -0.438017 140 161 146
0.430629 0.068764 -1.116744 184 168 115
-1.285526 -0.581800 0.216249 108 139 175
1.536930 0.620145 0.748099 234 193 199
0.390281 -0.367688 0.012223 183 149 166
-0.186774 -0.351793 0.833845 157 150 202
0.098142 -0.026185 1.006086 170 164 210
-0.332335 1.411633 -0.021747 150 228 164
-0.296437 -0.331515 1.629951 152 150 238
0.333214 -0.417359 -0.173090 180 147 158
0.426757 -0.054888 0.591028 184 163 192
-0.183781 0.527187 -0.960419 157 189 122
0.923104 0.492720 -0.823503 206 187 129
0.881415 -0.556900 1.390095 205 140 227
-0.269512 0.311518 0.272371 153 179 177
0.393903 0.207160 0.673301 183 174 195
-0.972843 -0.521004 0.190210 122 142 174
-0.704901 1.176435 0.416278 134 218 184
-0.488286 -0.675448 1.359006 143 135 226
-0.524073 -0.085890 0.054051 142 161 168
-0.443318 -0.418658 0.487027 145 147 187
0.461264 -0.324915 1.010402 186 151 210
0.984488 -0.883101 0.310231 209 126 179
0.291674 1.060133 -1.329366 178 213 106
0.312155 -0.334288 -0.299089 179 150 152
-0.372450 -0.396246 0.441418 149 148 185
-0.147111 1.144872 0.236820 159 216 176
1.029200 -0.590851 -0.814615 211 139 129
0.009264 0.165970 1.665127 166 173 240
-0.001639 0.119388 0.472886 165 171 186
0.720749 -0.003747 0.247421 197 165 176
-0.855649 -0.125562 -0.658211 127 160 136
-0.941131 -1.168657 0.107660 123 113 170
0.221174 0.450999 -1.568119 175 185 95
0.021861 -0.034235 -0.459757 166 164 145
-0.380005 0.316280 0.538023 148 179 189
0.061555 -1.061172 0.421138 168 118 184
-0.082520 1.241747 -0.498208 162 221 143
0.392171 1.214378 1.000307 183 219 210
-0.391745 0.293595 -0.025720 148 178 164
0.149207 -0.521923 -0.492837 172 142 143
-0.936615 -0.216961 0.304625 123 156 179
0.678729 0.005494 1.159162 196 165 217
0.255245 1.244346 -1.112714 177 221 116
0.055819 -0.416815 0.344415 168 147 181
0.015706 0.007604 0.770782 166 166 200
0.106035 -0.716268 -0.813354 170 133 129
0.048951 -0.234347 1.406023 167 155 228
1.686112 -0.248262 -0.152162 240 154 158
0.318043 0.112946 0.456551 179 170 186
0.050956 -0.647370 -0.467772 168 136 144
0.288628 -0.505477 -1.043077 178 143 119
-0.830043 -1.218846 0.197970 128 111 174
-0.228347 -1.179175 -1.322722 155 113 106
-0.166980 0.200242 -0.525883 158 174 142
-0.119322 0.845857 -0.019043 160 203 164
-0.090797 -0.731496 0.643047 161 133 194
0.042632 -0.113941 -1.417305 167 160 102
-0.088976 -0.824836 -1.548076 161 128 96
-0.216741 -0.138231 -0.374083 156 159 149
0.355839 0.128046 0.650812 181 171 194
0.092986 -1.058635 -0.249074 169 118 154
-0.242258 -0.434343 1.382213 154 146 227
0.124209 -0.277191 -1.590999 171 153 94
0.073328 -0.024053 -0.421719 169 164 146
-0.235037 0.732422 0.021694 155 198 166
-0.076940 -0.862901 0.640617 162 127 194
0.074301 1.032149 -0.896878 169 211 125
-1.271025 0.804673 -0.768601 109 201 131
-0.070661 -0.272419 0.453687 162 153 185
0.708472 -0.190386 0.378991 197 157 182
0.124023 -0.026094 -0.987767 171 164 121
0.782394 0.542302 1.024302 200 189 211
-0.208779 0.251787 1.580915 156 176 236
0.090380 -0.239700 -0.535622 169 155 141
0.564853 -0.398641 0.090104 190 147 169
-0.719349 -0.609061 -0.520439 133 138 142
0.034896 -0.288477 -1.326680 167 152 106
-0.846105 0.106427 1.502426 127 170 232
-0.221679 0.048762 0.565845 155 167 191
0.706574 -0.457813 -0.003835 197 145 165
-0.986263 0.464668 -0.288729 121 186 152
-1.089649 -0.329801 0.762990 117 151 199
0.021765 -0.241888 -1.732073 166 154 88
-0.125407 -0.067567 -0.423273 160 162 146
-0.115869 0.297025 -0.697015 160 179 134
0.975166 0.378963 0.560737 209 182 190
0.224809 0.075194 -1.318212 175 169 106
-0.947163 0.315277 1.446875 123 179 230
0.075651 0.101087 -0.474578 169 170 144
0.207145 -0.553304 0.522330 174 141 189
-0.108840 0.061350 -1.141583 160 168 114
-0.063093 -0.998132 1.101838 162 121 214
0.025910 1.508103 1.005624 166 233 210
-0.334247 0.305060 -0.342331 150 179 150
-0.781137 -0.235263 -0.266204 130 155 153
0.942946 0.352927 0.318186 207 181 179
1.078826 -0.844670 -0.721393 213 128 133
0.448984 0.973553 -1.149484 185 209 114
-0.052596 -0.019581 0.429093 163 164 184
0.511677 -0.160651 0.664260 188 158 195
0.528252 -0.913227 -0.048084 189 124 163
-0.008572 0.191715 -1.397677 165 174 103
0.622181 -0.104682 -1.434871 193 161 101
0.336453 0.366424 -0.006668 180 182 165
0.706369 0.444277 0.136647 197 185 171
1.148269 -0.053066 -0.180146 216 163 157
-0.243582 0.348829 1.272817 154 181 222
-0.517727 -1.352416 -0.659188 142 105 136
-0.393068 -0.210354 -0.301587 148 156 152
-0.685527 0.520060 0.207652 135 188 175
-0.127416 -0.598601 0.874625 160 139 204
-0.293441 -0.099473 1.326249 152 161 224
0.420289 -0.250053 -1.680247 184 154 90
-0.073641 -0.360993 -0.105718 162 149 161
0.569848 -0.008027 -0.400847 191 165 147
0.528089 0.023841 -0.842279 189 166 128
-1.153591 -0.531460 0.703366 114 142 197
0.023532 -0.179823 -1.712416 166 157 89
-0.068694 -0.060295 0.405042 162 163 183
-0.842799 -0.223230 0.060367 128 155 168
0.869622 0.379943 -0.483267 204 182 144
0.347789 -1.348285 0.168292 181 105 173
-0.224621 1.592393 0.872107 155 236 204
0.305357 0.276458 0.271140 179 178 177
0.284704 -0.688155 -0.360015 178 135 149
0.206797 -0.179860 0.999672 174 157 210
-1.151951 0.497377 0.439909 114 187 185
-0.694217 0.902487 1.185331 134 206 218
-0.044198 0.025376 -0.441173 163 166 146
0.223592 0.544949 -0.512484 175 190 142
0.549240 0.313873 0.998081 190 179 210
0.110872 0.131889 -1.414862 170 171 102
-0.666471 -1.009719 1.300000 136 120 223
-0.170003 -0.393938 0.009356 158 148 166
-0.262415 -0.122385 -0.669859 154 160 135
0.008225 -0.015289 -0.996992 166 165 121
0.813723 -0.543869 -1.094712 202 141 116
0.029203 0.342698 1.729528 167 181 242
-0.390219 0.156206 -0.161378 148 172 158
-0.624287 0.593901 -0.125100 137 192 160
-0.046169 -1.014743 0.297784 163 120 179
-0.777305 0.918503 -0.613847 131 206 138
-0.510953 0.091163 -1.473614 142 169 99
-0.233893 0.143396 -0.387560 155 172 148
-0.399738 -0.084776 -0.774034 147 161 131
0.215357 1.073253 -0.402641 175 213 147
1.212005 0.426786 -0.458181 219 184 145
0.790841 -0.644550 1.353907 201 136 226
0.187854 -0.128097 -0.580635 174 160 139
0.445550 0.285049 -0.603186 185 178 138
0.162903 0.799550 0.702301 173 201 197
-1.348393 0.207303 0.175631 105 175 173
0.166409 -1.180160 -1.183392 173 113 112
-0.086471 -0.423125 -0.099495 161 146 161
-0.339375 -0.184884 -0.767970 150 157 131
0.828173 0.805943 0.374037 202 201 182
0.025783 0.291244 1.280312 166 178 222
-0.250232 -1.014770 -1.417822 154 120 102
0.387433 0.268503 0.107915 183 177 170
0.742489 -0.097152 -0.022950 198 161 164
-0.029970 -0.572142 -0.981198 164 140 121
-0.025593 -0.002183 1.480828 164 165 231
0.705362 -0.186293 -1.533452 197 157 97
-0.212847 -0.277429 0.163985 156 153 173
-0.311344 0.133313 0.668454 151 171 195
0.454455 -1.014935 -0.245512 186 120 154
1.112147 -0.356599 -0.922862 215 149 124
-0.060306 -0.021085 -1.748813 163 164 87
-0.183912 0.151505 -0.528965 157 172 142
-0.415475 0.270307 0.779655 147 177 200
-0.215162 -1.009794 0.038623 156 120 167
0.282587 1.335382 0.406709 178 225 183
-0.288771 -0.432413 -1.509600 152 146 98
-0.102446 -0.346175 0.307310 161 150 179
-0.750945 -0.275122 0.324772 132 153 180
0.321570 0.439380 1.011112 180 185 210
0.135794 0.039600 1.365672 171 167 226
-0.376553 1.283555 -0.952042 148 223 123
-0.315574 0.112793 -0.200858 151 170 156
-0.091006 -0.394784 0.612281 161 148 193
-0.576285 0.718263 -0.533467 140 197 141
0.273476 0.372598 -1.359984 177 182 105
-0.225893 -0.487585 -1.619729 155 143 93
-0.058347 0.445554 -0.039027 163 185 164
0.379995 0.404522 0.543360 182 183 189
1.013341 0.522347 0.103646 210 189 170
1.411266 0.246463 0.208188 228 176 175
-0.083242 -0.069167 -1.714920 162 162 89
-0.256971 -0.001102 -0.344847 154 165 150
-0.292229 0.288150 0.793067 152 178 201
0.929704 -0.040707 0.439288 207 163 185
0.012208 -0.139954 1.309231 166 159 224
0.875034 -0.843375 1.058999 204 128 213
-0.233443 -0.351871 -0.255075 155 150 154
0.787353 0.436906 0.005443 200 185 165
-0.944584 -0.481191 -0.342302 123 144 150
0.086778 -1.352074 0.245747 169 105 176
-0.231104 -0.609047 -1.514141 155 138 98
-0.466281 -0.262988 0.021724 144 154 166
-0.285568 -0.071855 0.692087 153 162 196
-0.097789 -0.957236 0.332929 161 123 180
-0.521652 -0.041017 1.366205 142 163 226
1.173965 -0.022400 -1.354094 218 164 105
0.356494 -0.312304 -0.254343 181 151 154
0.426248 -0.609818 0.129779 184 138 171
0.269585 -0.337302 -0.972870 177 150 122
0.934553 -0.001453 -0.998180 207 165 121
1.659852 -0.385963 0.338816 239 148 180
0.383812 0.120749 0.273943 182 171 177
-0.672841 -0.390278 0.295657 135 148 178
0.361389 -0.709159 -0.936323 181 134 123
0.263640 -0.934164 0.934472 177 124 207
1.155576 0.840613 0.959663 217 203 208
-0.053737 -0.096508 -0.549991 163 161 141
0.445746 -0.580868 -0.308167 185 139 151
0.196102 0.483608 -1.049247 174 187 118
1.140633 -0.148700 0.797448 216 159 201
1.018511 0.564512 1.304358 211 190 223
0.120715 0.276937 -0.425544 171 178 146
0.382585 -0.289921 -0.532904 182 152 141
0.963956 -0.137418 -0.625300 208 159 137
1.032281 -0.100716 1.091083 211 161 214
1.143375 -0.948367 0.662319 216 123 195
-0.562412 -0.090333 0.217056 140 161 175
0.491183 0.616628 -0.009248 187 193 165
1.080197 -0.074869 -0.196564 213 162 156
-0.272331 -0.521708 -1.378015 153 142 104
0.674667 1.641640 0.339173 195 239 180
-0.069078 0.231075 0.433062 162 176 185
0.461908 -0.629196 -0.025132 186 137 164
0.190857 1.125058 0.219147 174 215 175
1.073685 0.691712 -0.383973 213 196 148
1.579530 0.544191 -0.512811 236 190 142
0.240432 -0.375485 0.038033 176 148 167
0.798830 -0.305113 -0.053101 201 152 163
0.616824 -0.289932 -0.833862 193 152 128
0.328169 -0.739049 1.096219 180 132 214
0.979618 -1.466582 -0.065691 209 100 162
0.034129 0.210117 -0.461182 167 175 145
0.227837 0.088336 0.832178 175 169 202
-0.387781 -1.086442 -0.463560 148 117 145
-0.737433 -1.070572 0.512997 132 117 188
1.683967 -0.285534 -0.127266 240 153 160
-0.128276 0.079185 0.421129 160 169 184
0.064405 -0.276791 -0.621167 168 153 138
0.191469 -0.128023 1.051039 174 160 212
0.699549 -1.230194 -0.202571 196 110 156
0.169265 -0.020198 -1.601377 173 164 94
-0.187752 -0.169035 0.396657 157 158 183
0.691482 0.482672 0.187667 196 187 174
-0.610825 -0.607214 0.707546 138 138 197
-0.656196 0.046582 -1.170195 136 167 113
0.027118 1.651876 -0.516270 166 239 142
-0.385703 0.100354 -0.176376 148 170 157
0.475427 -0.088834 0.674409 186 161 195
-0.084905 -1.158558 0.127048 161 114 171
-1.103846 0.133314 0.804699 116 171 201
0.309535 -0.897670 1.384625 179 125 227
-0.025000 0.600450 0.113941 164 192 170
-0.358253 0.280204 0.538366 149 178 189
0.014228 -0.169323 -0.998760 166 158 121
0.177160 0.467219 -1.372308 173 186 104
0.122914 1.511291 0.438672 171 233 185
-0.445319 0.078054 -0.296753 145 169 152
-0.558159 0.457081 0.476436 140 186 187
1.017094 0.228825 0.268743 211 175 177
-0.174913 1.321913 -0.176486 157 224 157
0.758928 -0.272932 -1.486172 199 153 99
-0.300287 -0.158106 0.459147 152 158 186
-0.190035 -0.360705 0.694061 157 149 196
0.612224 -0.126158 0.885514 193 160 205
-0.054491 0.320366 -1.260055 163 180 109
0.824229 0.334424 -1.374997 202 180 104
0.101276 0.056902 0.361305 170 168 181
-0.012607 -0.007225 -0.824389 165 165 128
-0.460078 0.564710 0.828085 145 190 202
-0.302475 -0.445987 1.261915 152 145 222
-0.546553 -1.496985 -0.833734 141 98 128
-0.101971 0.274431 -0.463423 161 177 145
-0.774971 0.219237 -0.165307 131 175 158
-0.835169 0.658122 0.034319 128 195 167
-0.099956 0.972396 0.859035 161 209 204
-1.110899 0.184245 1.263129 116 173 222
0.136068 0.102240 -0.348682 171 170 150
0.214854 0.659675 0.437673 175 195 185
0.754898 -0.170734 0.821456 199 158 202
-0.928304 -0.251024 1.127444 124 154 216
0.253542 -1.375179 -0.937748 177 104 123
0.010439 -0.018501 -0.414703 166 164 147
0.228066 0.033686 -0.895597 175 167 125
-0.526544 0.323862 -0.796383 142 180 130
-0.069429 0.500843 -1.447371 162 188 101
1.197611 1.036629 -0.400441 219 212 147
-0.044747 -0.064559 -0.510925 163 162 142
-0.127451 -0.559177 -0.588788 160 140 139
1.007834 -0.126546 0.557939 210 160 190
0.013324 -0.030344 -1.451455 166 164 100
0.847734 -0.203388 -1.516224 203 156 98
0.046814 0.027453 0.625954 167 166 193
-0.315622 0.077745 0.755175 151 169 199
0.638910 0.678256 -0.594014 194 196 139
