ply
format ascii 1.0
element vertex 1000
property float x
property float y
property float z
property uchar red
property uchar green
property uchar blue
end_header
0.001276 -0.040760 -0.856790 127 122 18
0.149148 0.365890 -0.855297 146 174 18
0.148202 0.362953 0.851054 146 173 236
-0.754832 0.087753 0.290869 31 138 164
-0.035718 -0.104790 -1.083161 122 114 -10
0.075478 0.604140 0.715413 137 204 218
-0.938824 0.477158 0.193761 7 188 152
-0.615614 0.527273 0.765511 49 194 225
-0.429010 0.904249 -0.444058 72 242 70
0.366213 0.642677 -0.715729 174 209 36
-0.899281 0.217953 0.487314 12 155 189
0.609716 -0.138270 -0.590086 205 109 52
0.042790 -1.096665 0.269943 132 -12 161
0.119632 -0.164156 -0.863086 142 106 17
-0.214778 0.675920 0.855064 100 213 236
0.692360 -0.273970 -0.809147 215 92 24
0.532452 0.211398 -0.789028 195 154 26
0.675798 0.773137 0.009056 213 226 128
-0.702650 0.255707 0.451657 37 160 185
0.125302 -0.221114 0.918873 143 99 244
0.845097 0.484368 -0.184292 235 189 104
0.676037 -0.790935 -0.345841 213 26 83
0.411293 0.130580 0.726730 179 144 220
-1.070256 -0.154291 0.079488 -8 107 137
-0.821008 -0.421564 -0.473230 22 73 67
0.104113 -0.112258 -0.817987 140 113 23
-0.104195 -0.784555 -0.795300 114 27 26
0.256296 0.258398 -0.751868 160 160 31
0.360589 -0.577023 0.806431 173 53 230
0.734867 -0.056876 -0.704939 221 120 37
0.150489 -0.027217 1.072407 146 124 264
-0.421633 -0.620386 -0.387427 73 48 78
-0.171035 0.462752 0.779856 105 186 226
0.172039 0.228438 0.794759 149 156 228
-0.277655 1.010754 -0.234518 92 256 97
0.211197 0.177186 0.755192 154 150 223
0.241499 0.321593 0.773986 158 168 226
-0.792659 0.205653 -0.845768 26 153 19
-0.447534 -0.703554 -0.524298 70 37 60
-0.083871 0.276545 1.042984 116 162 260
-0.696316 -0.321980 -0.381239 38 86 78
-0.038625 0.373935 -0.753880 122 175 31
-0.537325 -0.390873 0.711091 58 77 218
-0.927068 -0.191886 0.176255 9 103 149
-0.001717 0.010979 1.098198 127 128 267
0.801648 0.185832 0.585779 229 151 202
-0.467634 0.784055 0.573942 67 227 200
0.414333 -0.510338 0.545286 180 62 197
0.877242 0.701688 -0.065906 239 216 119
0.607214 -0.348790 0.458508 204 83 185
0.217770 -0.336818 1.050856 155 84 261
0.369574 -0.211678 -0.695159 174 100 38
0.700338 -0.386183 0.160255 216 78 147
-0.027567 -0.325921 -0.924305 123 85 9
-0.240861 0.268860 0.840102 96 161 234
0.406859 -0.825459 -0.476613 179 22 66
0.788828 0.158553 0.635747 228 147 208
-0.242447 -0.377108 0.910387 96 79 243
0.007936 -0.239549 0.913207 128 96 243
1.027654 -0.402721 -0.381370 258 76 78
0.193217 0.342874 0.732762 152 171 220
-0.555175 -0.615386 0.465239 56 49 186
0.191360 -0.810008 0.098578 151 24 140
0.632790 -0.374022 -0.334061 208 79 84
-0.622682 -0.192206 0.591470 48 102 202
0.774255 0.452176 0.415692 226 185 180
0.130999 0.099307 -0.886018 144 140 14
-0.757724 0.354122 -0.586242 30 172 52
0.498825 -0.592227 -0.569017 191 51 54
-0.869980 0.142759 0.575527 16 145 200
0.325573 -0.554769 -0.578827 169 56 53
-0.165824 0.301213 0.784370 106 165 227
-0.924502 0.262198 -0.433551 9 160 72
-0.612292 -0.957822 -0.169017 49 5 105
-0.041956 0.131109 -0.900095 122 144 12
0.397503 1.043315 0.260036 178 260 160
0.515311 0.734809 0.619663 193 221 206
0.939296 0.676441 -0.146866 247 213 108
-0.042166 0.139515 1.067235 122 145 263
-0.867959 -0.100016 0.619273 16 114 206
0.304053 0.188954 -0.751792 166 151 31
-0.584280 -0.058157 -0.922771 53 120 9
0.360008 0.799922 -0.275954 173 229 92
0.222072 -0.301684 0.881109 155 89 239
-0.218797 0.165224 1.143125 99 148 273
0.447548 -0.505030 0.884462 184 63 240
0.537527 -0.769609 0.562430 196 29 199
0.308578 0.685889 -0.781246 166 214 27
-0.841343 -0.182497 -0.536903 20 104 59
0.574236 0.141555 0.674839 200 145 213
0.704394 -0.445266 0.271655 217 70 162
0.780586 0.411172 0.162444 227 179 148
-0.118444 0.592590 -0.608484 112 203 49
-0.118181 0.825974 0.404646 112 232 179
0.351657 0.305086 0.977859 172 166 252
-0.641182 0.329788 0.522123 45 169 194
-0.143106 -0.072979 -0.956122 109 118 5
-0.736592 0.203123 -0.493338 33 153 64
-0.139030 0.128062 -0.880350 109 143 15
-0.273446 0.526257 -0.837961 92 194 20
-0.032522 -0.042423 -0.901730 123 122 12
-0.636816 0.296543 0.625639 46 165 207
-0.352736 0.052208 -1.015743 82 134 -2
0.188855 0.290734 1.089399 151 164 266
0.491340 -0.010857 1.061571 190 126 262
-0.561913 -0.169615 -0.913638 55 105 11
0.961754 -0.370469 -0.385389 250 80 78
0.041910 -0.549915 0.901831 132 57 242
-0.528890 0.717560 -0.312818 60 218 87
-0.308412 0.107573 -0.824168 88 141 22
-0.521125 0.188554 -1.016715 61 151 -2
-0.175347 -0.085132 -0.777858 105 116 28
-0.086856 -0.174960 -0.988353 116 105 1
-0.424867 -0.447994 0.658604 73 70 211
0.458402 -0.373296 -0.999525 185 79 0
0.525318 0.842387 -0.103790 194 234 114
0.153256 0.755349 0.241220 147 223 158
-0.043863 0.226791 0.839044 121 156 234
0.073098 -0.011292 0.819862 136 126 232
-0.861846 -0.034532 0.089387 17 123 138
0.949043 0.064576 0.137524 248 135 145
0.474324 -0.098676 0.935425 187 114 246
0.539548 0.936692 -0.064961 196 246 119
-0.365879 -0.525954 -1.002784 80 60 0
-0.675033 -0.331146 0.644017 41 85 209
1.032738 -0.055761 0.353729 259 120 172
-0.524844 0.744671 -0.435246 60 222 72
-0.189219 0.848360 0.626399 103 235 207
0.767888 0.383500 -0.177532 225 176 104
0.167033 0.128524 0.969272 148 143 251
-0.673261 -0.400232 -0.315905 41 76 87
0.004303 -0.070167 0.801377 128 118 229
-0.071686 1.006258 -0.296360 118 255 89
0.325802 0.328022 1.081627 169 169 265
0.256832 -0.636150 -0.593372 160 46 51
0.812231 -0.111483 -0.632352 231 113 46
0.677628 0.410495 -0.567116 213 179 55
-0.362643 -1.098935 0.179189 81 -12 150
-1.063042 -0.541489 0.033213 -8 58 131
-0.094037 0.687231 -0.814537 115 215 23
0.422195 0.114366 -0.907259 181 142 11
-0.145553 0.222532 0.949019 108 155 248
-0.266025 0.006912 -0.903306 93 128 12
0.320226 -0.275166 1.008848 168 92 256
0.831371 0.157833 0.142947 233 147 145
0.066796 -0.386751 1.031995 136 78 259
-0.522161 0.351109 0.690642 60 172 215
0.424316 0.373322 -0.897581 181 175 13
-0.062855 0.495698 -1.017637 119 190 -2
0.024911 0.014941 -0.929866 130 129 8
0.454157 0.764490 0.265394 185 224 161
-0.297730 0.629788 0.476942 89 207 188
-0.337018 0.017694 -0.975719 84 129 3
-0.801465 0.839919 -0.257461 25 234 94
-0.245549 0.078020 -0.992828 96 137 0
0.291770 -0.705918 -0.317643 164 37 87
1.114980 0.210001 -0.166966 269 154 106
-0.286729 0.146683 1.140259 90 146 272
0.202942 -0.074456 0.879672 153 118 239
0.290816 -0.500227 1.006517 164 63 255
0.004001 -0.290218 0.783169 128 90 227
0.289630 0.421858 0.864046 164 181 237
0.270734 -0.150150 -0.851483 162 108 18
-0.293490 -0.278438 0.783542 90 91 227
0.013768 -0.001451 0.958290 129 127 249
1.006392 -0.063913 -0.305978 255 119 88
-0.017841 -0.015783 0.896560 125 125 241
0.106573 0.825958 0.051721 141 232 134
-0.607936 0.821519 -0.388050 49 232 78
0.324884 0.280709 -1.053409 168 163 -6
-0.043526 0.263071 1.021056 121 161 257
0.996116 -0.022326 0.479626 254 124 188
-0.402652 0.638508 0.890557 76 208 241
-0.176634 0.360155 0.875801 104 173 239
-0.548508 0.217345 0.926301 57 155 245
-0.192146 0.038188 0.860708 103 132 237
-0.018706 -0.389396 0.842455 125 77 234
-0.175272 -0.255101 -1.132215 105 94 -16
0.938283 -0.202446 0.708601 247 101 217
0.092492 -0.043179 1.168476 139 121 276
0.700516 0.425099 -0.539189 216 181 58
-0.877328 -0.280052 -0.536004 15 91 59
-0.044326 0.617431 -0.715574 121 206 36
1.075839 -0.136597 -0.372447 264 110 80
-0.110499 0.793885 0.840648 113 228 234
-0.042836 0.872741 0.613173 122 238 205
0.079763 -0.161935 1.033469 137 106 259
-0.212705 -0.703734 0.585325 100 37 202
-0.355144 -0.611119 0.566378 82 49 199
0.584201 0.431398 0.805481 201 182 230
0.971862 -0.147247 -0.361988 251 108 81
-0.930388 0.322944 0.115631 8 168 142
-0.521903 -0.696323 0.563627 60 38 199
0.040353 0.554506 0.638774 132 198 208
-0.194126 -1.052157 0.139430 102 -6 145
0.737767 0.019321 0.364452 221 129 173
1.027687 0.073449 -0.314626 258 136 87
0.973589 0.410138 -0.112000 251 179 113
-0.058079 -0.163775 -1.025397 120 106 -3
0.120209 -0.083942 -1.185045 142 116 -23
0.581295 0.009649 0.777206 201 128 226
0.847862 -0.000133 0.680745 235 127 214
-0.436218 -0.082842 0.998771 71 116 254
-0.083235 -0.130725 -1.136043 116 110 -17
-0.022372 -0.018779 1.188125 124 125 278
-0.041774 -0.055346 -1.007823 122 120 0
-0.406121 0.207435 -0.868828 75 153 16
0.056597 0.420002 -1.006809 134 181 0
0.672108 -0.057576 0.818796 213 120 231
0.710909 0.339332 -0.302594 218 170 88
-0.112205 0.132999 -0.946036 113 144 6
-0.429751 0.425764 -0.596998 72 181 51
-0.183701 -0.424314 -0.895893 104 73 13
-0.234766 -1.008879 0.001964 97 -1 127
0.551714 -0.167721 -0.556109 197 106 56
-0.356597 1.060414 0.202973 82 262 153
-0.358073 -0.627192 -0.472762 81 47 67
0.716421 0.437584 0.534510 218 183 195
1.040214 0.069552 -0.252278 260 136 95
-0.064420 0.095679 0.843552 119 139 235
-0.389080 -0.074240 -0.779786 77 118 28
-0.353417 0.500463 0.793152 82 191 228
0.580935 0.906674 -0.306870 201 243 88
0.560456 -0.744362 0.732203 198 32 220
-0.212352 -0.074743 -0.988814 100 117 1
0.045681 0.651997 -0.652838 133 210 44
-0.072611 0.616082 -0.681419 118 206 40
0.346845 0.266489 -0.837361 171 161 20
0.317954 0.731851 -0.261453 168 220 94
-0.026355 -0.535757 0.802516 124 59 229
0.006340 -0.402525 1.067794 128 76 263
0.878874 0.006178 -0.520609 239 128 61
-0.160919 -0.508589 -0.834445 106 62 21
0.604345 -0.353549 0.627388 204 82 207
-0.513831 0.233789 -1.017463 61 157 -2
-0.796722 0.152141 0.175708 25 146 149
0.805434 0.603257 -0.607504 230 204 50
0.743076 0.470245 0.677520 222 187 213
0.814099 -0.620874 0.442622 231 48 183
-0.780105 0.069976 -0.717460 28 136 36
0.266401 0.597998 -0.740260 161 203 33
0.239103 -0.906658 0.291037 157 11 164
-0.001255 -0.937405 0.571143 127 7 200
0.153721 -0.545692 0.645715 147 57 209
-0.242566 0.087729 1.113846 96 138 269
0.076019 -0.831391 -0.342327 137 21 83
-0.356071 0.356904 0.870266 82 173 238
0.146703 0.595340 0.753979 146 203 223
-0.055798 0.900114 0.497973 120 242 190
-0.171447 -0.006634 -0.837116 105 126 20
0.554971 -0.212695 -0.782183 198 100 27
0.685678 -0.156125 -0.690171 214 107 39
0.536655 0.290810 -0.714470 195 164 36
-0.650804 -0.422129 0.293759 44 73 164
0.002584 0.901950 0.327611 127 242 169
-0.544541 -0.635030 0.138516 58 46 145
-0.819037 0.588964 -0.017462 23 202 125
0.363897 0.910903 -0.160356 173 243 107
0.595049 0.528088 -0.428493 203 194 72
0.343163 -0.473048 1.036311 171 67 259
-0.029109 -0.217302 1.082394 123 99 265
-0.432030 -0.013814 -0.708889 72 125 37
0.914318 -0.030073 -0.430844 244 123 72
0.244104 0.097153 -0.892123 158 139 13
0.117496 0.173533 1.049540 142 149 261
-0.721962 0.172857 0.736177 35 149 221
-0.234827 0.201742 -0.839894 97 153 20
-0.902418 -0.220411 -0.293776 12 99 90
-0.009768 0.273748 -0.848430 126 162 19
-0.757946 -0.636827 0.307228 30 46 166
-0.192700 0.608363 0.944458 102 205 247
0.682940 -0.725109 -0.353435 214 35 82
-0.359674 -0.370453 -0.915531 81 80 10
0.165404 0.335286 -0.855021 148 170 18
-0.331155 -0.358925 0.833133 85 81 233
-0.402804 0.022823 -0.865760 76 130 17
0.111060 -0.252100 0.900283 141 95 242
-0.133253 0.239726 0.807667 110 158 230
-0.957765 0.647502 -0.178274 5 210 104
0.070920 0.207120 1.112813 136 153 269
0.134349 0.115351 0.792947 144 142 228
-0.987705 0.020483 -0.324601 1 130 86
-0.370134 -1.061138 0.106924 80 -7 141
0.091747 -0.178898 0.934686 139 104 246
-0.279008 -0.586124 -0.573684 91 52 54
-0.197323 0.318832 0.867588 102 168 238
0.400175 -0.949401 -0.181308 178 6 104
0.551026 -0.331005 -0.656422 197 85 43
0.313647 0.528104 -1.024693 167 194 -3
-0.667643 -0.403730 -0.741059 42 76 33
0.946499 -0.341946 0.151348 248 83 146
-0.081655 0.588305 0.688828 117 202 215
0.933261 -0.252053 0.172403 246 95 149
0.856333 -0.352592 -0.348010 236 82 83
-0.787808 0.429674 0.020138 27 182 130
-0.712810 -0.431077 -0.321584 36 72 86
-0.112927 -0.392819 1.068907 113 77 263
-0.836550 -0.164811 0.152459 20 106 146
0.376110 0.366530 0.950499 175 174 248
-0.191278 -1.153472 0.112489 103 -19 141
0.476346 0.335533 0.857249 188 170 236
-0.186037 0.454041 -0.977289 103 185 2
0.001092 0.003210 0.951081 127 127 248
0.100722 -0.118728 1.119035 140 112 270
0.257074 -0.645362 0.483138 160 45 189
0.335137 -0.079926 -1.015687 170 117 -2
0.237607 0.529744 -0.684038 157 195 40
0.875604 -0.195776 0.258013 239 102 160
0.250246 -0.570461 0.777220 159 54 226
-0.591891 0.215947 -0.683793 52 155 40
-0.878583 -0.191235 0.651472 15 103 210
-0.028691 0.916920 0.364895 123 244 174
-1.134829 -0.151371 -0.017355 -17 108 125
-0.864884 -0.020362 -0.627467 17 124 47
0.171286 0.837291 0.397906 149 234 178
0.631068 -0.632792 0.152530 207 46 146
0.758306 -0.102250 0.655325 224 114 211
0.306651 0.175404 0.734989 166 149 221
-0.809573 0.218688 0.597007 24 155 203
-0.402368 0.947848 -0.372510 76 248 80
-0.776540 -0.378406 -0.037210 28 79 122
0.469622 -0.774872 0.660301 187 28 211
0.457490 -0.240481 -0.948065 185 96 6
0.672924 0.706820 0.280750 213 217 163
-0.693568 -0.498945 0.073490 39 63 136
-0.701416 0.721377 0.500606 38 219 191
0.406106 0.815897 0.692852 179 231 215
0.284716 -0.598722 0.623197 163 51 206
-0.366502 0.214744 0.942129 80 154 247
0.940892 0.539621 -0.371172 247 196 80
-0.041067 -0.521190 -0.630308 122 61 47
-0.431231 0.464307 -0.718902 72 186 35
-0.094558 0.228746 0.942723 115 156 247
0.404635 -0.643808 0.515963 179 45 193
-0.012318 -0.051326 -0.887802 125 120 14
0.693937 0.105880 -0.842567 215 140 20
-0.600162 -0.110751 0.700863 50 113 216
-0.649179 0.068539 -0.647674 44 136 44
0.278523 0.227796 0.988244 163 156 253
-1.128315 0.290483 -0.204097 -16 164 101
-0.425118 0.812090 -0.041996 73 231 122
0.673771 -0.699559 0.539117 213 38 196
0.101763 0.237261 -1.066461 140 157 -8
0.153612 -0.020277 -0.802979 147 124 25
0.566038 0.908220 0.408027 199 243 179
-0.099547 -0.056948 0.986433 114 120 253
-0.079613 -0.083924 1.171238 117 116 276
0.607494 -0.776207 -0.064660 204 28 119
0.277151 -0.367766 -0.696048 162 80 38
0.588923 -0.204676 0.868148 202 101 238
-0.326511 0.843182 0.116176 85 235 142
-0.633975 0.761885 -0.177114 46 224 104
0.285331 -0.019038 -0.956376 163 125 5
0.496458 0.754190 -0.076540 190 223 117
0.581864 -0.484783 0.291183 201 65 164
0.894673 -0.433404 0.659601 241 72 211
-0.085089 0.078900 -1.105781 116 137 -13
-0.273567 0.070441 0.905996 92 136 243
-0.352257 -0.145394 -0.718175 82 108 35
0.005770 -0.116222 -0.909293 128 112 11
0.570500 0.782107 -0.553491 200 227 56
-0.001355 -0.022234 1.100554 127 124 267
0.253837 0.197450 0.933070 159 152 246
0.225143 -0.643021 -0.505756 156 45 63
0.117796 0.940287 -0.548210 142 247 57
-0.558233 -0.011571 0.940488 56 126 247
0.705615 -0.455257 0.378555 217 69 175
0.143832 -0.064275 1.127065 145 119 271
0.644770 0.487816 -0.458717 209 189 69
0.048438 0.555268 -0.938560 133 198 7
-0.057107 -0.032426 1.039248 120 123 260
-0.126210 0.354117 0.739645 111 172 221
-0.084671 -0.901894 0.220058 116 12 155
-0.291315 -0.472778 1.038904 90 67 259
-0.103988 0.898831 -0.047850 114 242 121
0.446948 0.662209 -0.553083 184 211 56
0.208625 0.893428 -0.335826 154 241 84
-0.048090 -0.995451 0.584718 121 0 202
0.346590 -0.852975 0.517407 171 18 193
0.994344 -0.201626 -0.466118 254 101 68
-0.736218 0.021795 -0.366640 33 130 80
0.825803 0.677401 0.062912 232 213 135
-0.314510 -0.589908 -0.477881 87 52 66
-0.909713 -0.370509 -0.492849 11 80 64
-0.709263 0.249757 -0.331111 37 159 85
-0.270335 -0.394906 1.031268 93 77 258
-0.230035 0.717232 0.932718 98 218 246
-0.780147 -0.769054 0.255663 28 29 160
-0.065640 0.515442 -1.015021 119 193 -1
0.640391 -0.546730 0.174016 209 57 149
0.401031 -0.442996 0.957701 178 71 249
-0.007057 -0.026999 -0.915619 126 124 10
0.205015 -0.108616 -0.849418 153 113 19
-1.017078 -0.066674 0.612958 -2 118 205
-0.124341 -0.228396 -0.869420 111 98 16
0.755494 0.415509 0.436404 223 180 183
-0.353159 -0.842516 -0.566002 82 20 55
-0.362249 -0.378736 1.001284 81 79 255
0.139919 -0.092565 0.983290 145 115 252
0.981064 -0.015792 -0.365823 252 125 80
0.066870 -0.107911 -1.051154 136 113 -6
-1.070296 0.377682 0.369016 -8 175 174
0.058130 0.157997 1.074115 134 147 264
-0.018719 -0.036884 -1.189921 125 122 -24
0.587156 -0.787159 -0.209233 202 27 100
0.838174 -0.096283 -0.338959 234 115 84
0.080719 -0.868918 0.396542 137 16 178
0.830623 0.301174 0.406599 233 165 179
0.236638 0.833038 0.002724 157 233 127
-0.934452 0.383978 0.105806 8 176 140
-0.734105 0.091096 -0.512365 33 139 62
0.990692 -0.020152 0.154058 253 124 147
0.635116 -0.565804 0.141143 208 55 145
-0.698449 -0.185885 -0.561669 38 103 55
-0.023300 0.073667 0.942249 124 136 247
-0.176003 0.358467 -0.845803 105 173 19
0.039003 0.059950 -0.966806 132 135 4
-0.722691 0.609047 0.148160 35 205 146
-0.139086 -0.641712 -0.900437 109 45 12
0.395012 0.747601 0.471086 177 222 187
0.814014 -0.199355 0.052350 231 102 134
0.730432 -0.355020 0.215924 220 82 155
0.873955 0.212714 -0.125141 238 154 111
0.547718 -0.340252 0.604849 197 84 204
-0.503230 -0.201101 -1.009224 63 101 -1
-0.764345 0.458604 -0.497305 30 185 64
0.511159 -0.351538 -0.897337 192 82 13
0.003721 0.009630 -0.860415 127 128 17
0.486649 0.055807 0.889969 189 134 240
-0.297870 0.200383 -0.769589 89 153 29
-0.934740 0.407145 -0.458493 8 179 69
-0.711168 -0.182731 0.328350 36 104 169
-0.166971 -0.545627 0.772988 106 57 226
0.253474 0.057524 0.984964 159 134 253
-0.542684 0.481396 -0.842199 58 188 20
0.606398 0.744589 -0.328185 204 222 85
-0.179208 -0.264867 -1.078113 104 93 -9
-0.576579 -0.176852 -0.817278 53 104 23
-0.158301 -0.462874 1.024339 107 68 258
-0.333060 0.385319 1.078743 85 176 265
0.449078 0.185589 0.698906 184 151 216
-0.598512 -0.163967 0.595633 51 106 203
-0.146665 -0.799049 -0.628354 108 25 47
0.383097 0.619573 -0.594197 176 206 51
0.387918 -0.112347 -0.907698 176 113 11
-0.673173 -0.700859 0.260122 41 38 160
-0.563481 -0.931324 -0.383215 55 8 78
-0.507625 0.242500 0.597964 62 158 203
-0.862442 -0.254739 -0.288901 17 95 90
0.326504 0.279192 1.072721 169 163 264
0.095584 -0.098108 0.992224 139 114 254
0.248559 -1.113056 0.154607 159 -14 147
-0.202302 0.174332 1.032313 101 149 259
-0.101893 -0.024765 0.834158 114 124 233
0.925032 -0.075956 -0.669321 245 117 42
-0.106974 0.073774 1.154405 113 136 274
0.200831 -0.322740 0.906589 153 86 243
-0.534378 0.445324 0.919319 59 184 244
-0.480784 0.635388 -0.111617 66 208 113
0.158208 0.296972 -0.756452 147 165 31
0.462617 0.312789 0.841797 186 167 234
0.984834 0.610032 -0.087146 253 205 116
-0.079434 0.831523 0.339515 117 233 170
-0.652540 0.382433 -0.553963 44 176 56
0.414441 0.027177 -0.762323 180 130 30
0.169642 -0.017195 1.134439 149 125 272
-0.157886 0.222005 0.827222 107 155 232
0.475549 0.009402 0.670923 188 128 213
-0.354547 -1.028522 0.450688 82 -3 184
-0.768791 -0.315510 -0.262606 29 87 94
-0.037624 0.616672 0.671550 122 206 213
0.155743 -0.077521 -0.784826 147 117 27
-0.752843 0.274462 0.113311 31 162 141
0.181001 -0.164893 -0.916862 150 106 10
-1.072727 -0.157256 -0.071734 -9 107 118
-0.754357 0.139137 0.765557 31 145 225
-0.115696 -0.845285 -0.746158 112 19 32
0.456961 1.023479 0.259287 185 257 160
0.659736 -0.589572 0.698657 211 52 216
-0.218440 -0.758227 -0.703854 99 30 37
-0.113279 -0.451112 -0.986354 113 69 1
0.262552 -0.152730 0.910179 160 108 243
0.315747 -0.324646 0.670690 167 86 213
-0.905363 0.092551 -0.072179 12 139 118
-0.568352 -0.030126 0.870367 55 123 238
-0.374105 0.233387 -1.077164 79 157 -9
0.716092 0.649239 0.322397 218 210 168
0.259141 0.874301 0.172414 160 238 149
-0.013919 1.003502 0.061171 125 255 135
-0.796796 0.322495 -0.682320 25 168 40
-0.114343 0.095067 0.901390 112 139 242
-0.095384 -0.595727 -0.763300 115 51 30
-0.135227 -0.482842 -0.696002 110 65 38
-0.531141 0.332141 -0.830834 59 169 21
-0.096608 0.900604 -0.001405 115 242 127
-0.569166 0.795662 -0.139888 54 228 109
-0.019838 0.671794 0.913856 124 213 244
0.103025 0.112942 -0.806575 140 141 24
-0.200030 0.026188 1.020611 101 130 257
-0.645532 -0.778467 0.442086 45 28 183
0.028324 0.833954 0.226050 131 233 156
0.092019 -0.686480 0.712582 139 39 218
-0.957804 0.222138 0.312730 5 155 167
-0.679504 0.317625 0.455460 40 167 185
-0.039524 0.339114 -0.892348 122 170 13
0.075939 -0.769130 0.677390 137 29 213
0.997120 -0.140436 0.007582 254 109 128
1.136546 -0.082593 0.153131 272 116 147
1.159291 0.047281 -0.178645 275 133 104
0.380267 -0.255335 -0.774840 175 94 28
0.317444 0.320055 -0.818222 167 168 23
0.297602 -0.297619 0.740811 165 89 221
-0.752553 0.469559 0.568764 31 187 200
0.464997 0.642440 0.493456 186 209 190
-0.129745 -0.022228 -0.968651 110 124 3
-0.570007 0.424261 -0.779454 54 181 28
0.036573 -0.133446 1.040177 132 110 260
0.686374 -0.264118 0.373649 215 93 175
0.148453 0.050545 1.017999 146 133 257
-0.029516 -0.004470 1.057035 123 126 262
0.028114 -0.087793 -1.014966 131 116 -1
-0.052749 -0.977514 -0.215225 120 2 100
-0.463000 -0.009031 1.076820 68 126 264
0.882756 0.361267 -0.192933 240 173 102
0.294261 -0.921541 -0.412390 165 10 74
0.251619 0.806132 0.736496 159 230 221
-0.088420 0.500944 0.971906 116 191 251
0.850560 -0.375148 -0.401997 235 79 76
-0.489499 -0.022672 -0.979730 65 124 2
-1.155967 -0.219628 -0.117417 -19 99 112
-0.780830 0.421406 0.541976 27 181 196
-0.473017 0.682347 -0.244724 67 214 96
-0.877138 0.106719 -0.539167 15 141 58
0.220805 -0.572788 0.522383 155 54 194
1.143690 0.159403 0.205367 273 147 153
-0.717203 0.336439 0.359514 36 170 173
0.230886 0.054959 -1.127760 156 134 -16
0.141219 0.676163 -0.662951 145 213 42
-0.456195 -0.262866 1.035031 69 93 259
0.638320 0.334119 -0.728219 208 170 34
0.056938 -0.050501 1.110185 134 121 269
0.148256 -0.461173 -0.893495 146 68 13
0.790093 0.333120 0.294782 228 169 165
-0.679842 0.152123 -0.604713 40 146 50
-0.704007 0.181408 0.664248 37 150 212
0.089019 -0.154239 -1.113323 138 107 -14
-0.341389 -0.720697 0.855900 83 35 236
-0.139314 0.129282 -0.856967 109 143 18
0.536490 0.461349 -0.827034 195 186 22
0.015958 0.992383 0.326157 129 254 169
-0.042930 0.041173 -1.116658 122 132 -14
-0.107516 -0.164973 1.003134 113 106 255
-0.010444 0.536870 0.645014 126 195 209
0.022675 0.669266 -0.920782 130 212 10
0.508661 0.257373 -0.858320 192 160 18
0.096819 0.268325 0.768138 139 161 225
0.857715 0.587308 0.338727 236 202 170
0.435264 -1.028074 0.422383 182 -3 181
-0.413000 0.278513 0.711732 74 163 218
0.286534 1.043488 -0.269191 164 260 93
0.911219 -0.169133 0.047667 243 105 133
-0.775198 -0.383481 -0.565394 28 78 55
-0.307579 -0.637159 -0.629031 88 46 47
0.196239 -0.775978 -0.020087 152 28 124
0.028114 0.004708 -0.937405 131 128 7
0.709134 -0.331005 -0.611845 217 85 49
-0.271470 -0.126636 0.801442 92 111 229
-0.092819 0.093386 -0.792732 115 139 26
0.234485 0.301223 -0.902214 157 165 12
0.372694 -0.238218 -0.765312 175 97 29
-0.523108 -0.999246 -0.029930 60 0 123
-0.944133 -0.322346 -0.335733 7 86 84
-0.353122 1.057376 -0.271187 82 262 92
0.533354 -0.829796 -0.263353 195 21 93
0.221455 -0.604413 -0.607228 155 50 50
0.329675 -0.258973 -0.790367 169 94 26
-0.326979 -0.344870 0.695781 85 83 216
-1.084369 0.225132 -0.025379 -10 156 124
0.341286 0.839773 0.532443 171 234 195
-0.056621 -0.687007 -0.434072 120 39 72
-0.313166 -0.296154 -0.684771 87 89 40
0.023463 -0.004296 -0.847922 130 126 19
-0.509816 -0.324350 -0.640435 62 86 45
-0.404703 0.723991 0.608368 75 219 205
0.623083 -0.172219 0.875261 206 105 239
-0.159669 -0.239708 -1.111930 107 96 -14
-0.494032 0.954827 -0.352064 64 249 82
0.168594 -0.848166 0.177865 148 19 150
0.127582 0.365740 -0.775045 143 174 28
-0.990501 0.187107 0.463146 1 151 186
0.346833 0.762353 -0.225330 171 224 98
0.000264 -0.124246 -0.990626 127 111 1
-0.373194 -0.243038 -0.839276 79 96 20
0.495313 0.839917 0.493618 190 234 190
1.131042 -0.051144 0.356025 271 120 172
-0.464647 0.903501 -0.420774 68 242 73
-0.335071 -0.281764 -0.838478 84 91 20
-0.948152 -0.074351 -0.593866 6 118 51
0.950696 -0.698724 0.107114 248 38 141
0.063225 -0.824620 0.051874 135 22 134
-0.963609 -0.036146 0.414282 4 122 180
-0.063639 0.885593 0.775266 119 240 226
0.066403 0.398162 -0.750077 135 178 31
0.539046 -0.617787 -0.586000 196 48 52
-0.170342 0.195704 0.850597 105 152 235
0.257334 -0.918300 0.183136 160 10 150
-0.773892 -0.413376 -0.249067 28 74 95
0.009636 -0.045284 -0.861130 128 121 17
-0.172786 -0.877794 0.293312 105 15 164
-0.551788 0.160800 -0.594020 57 148 51
-0.022995 0.671247 -0.835586 124 213 20
0.626663 0.736165 -0.496695 207 221 64
0.010909 -1.070515 -0.213911 128 -8 100
1.000851 0.189646 0.451394 255 151 185
-0.982254 0.196316 0.180098 2 152 150
-0.199174 0.537149 0.988958 102 195 253
-0.799900 -0.327222 -0.428942 25 85 72
-0.203466 0.842770 -0.660420 101 234 43
-0.538377 0.728262 -0.251986 58 220 95
-0.232661 -0.065148 0.894545 97 119 241
-0.133441 0.055611 -0.947230 110 134 6
0.987368 -0.175599 0.648539 253 105 210
-0.865674 0.320719 -0.631919 17 168 46
0.672624 0.360448 0.417780 213 173 180
-0.931177 0.654100 0.301674 8 210 165
0.498043 -0.312363 -0.740495 191 87 33
-0.033247 0.015563 1.166307 123 129 276
-0.011670 0.040175 0.907965 126 132 243
-0.359078 -0.001790 -0.753487 81 127 31
0.005638 -0.589930 0.664909 128 52 212
0.321000 0.822852 -0.767547 168 232 29
0.357860 0.765752 -0.412712 173 225 74
0.631407 0.703154 -0.190095 208 217 103
0.094697 -0.078312 1.183861 139 117 278
0.374630 -1.092110 -0.250962 175 -11 95
-0.665676 0.237129 -0.806765 42 157 24
-0.217734 0.611937 -0.595377 99 205 51
0.698217 0.576647 0.074422 216 201 136
0.130093 0.001025 -1.049603 144 127 -6
0.071380 0.030170 -1.116460 136 131 -14
-0.465764 -0.246183 -1.055961 68 96 -7
0.400368 -0.777585 -0.475112 178 28 66
0.071688 0.910479 0.072664 136 243 136
-0.140593 0.813348 0.306283 109 231 166
1.128846 0.147609 -0.102654 271 146 114
0.174114 0.212294 -0.937303 149 154 7
0.497155 0.463083 -0.702286 190 186 37
0.147283 0.341648 1.131280 146 171 271
-0.298742 -0.342661 0.680393 89 83 214
-0.784935 0.451455 -0.479414 27 185 66
-0.058114 0.797206 0.139314 120 229 145
0.247845 -0.159551 -0.762082 159 107 30
-0.405470 0.172170 -0.698848 75 149 38
0.036738 -0.024455 -1.169773 132 124 -21
0.081144 -0.990314 0.378922 137 1 175
0.026674 -0.176086 1.100646 130 105 267
-0.701588 -0.156077 -0.827712 38 107 21
0.005021 -0.029453 0.871804 128 123 238
0.087453 -0.319056 0.862080 138 86 237
0.076029 0.206486 0.870715 137 153 238
-0.054700 -0.117775 -0.792855 120 112 26
0.780833 -0.177647 0.240608 227 104 158
-0.468874 0.213409 -1.056140 67 154 -7
0.359173 -0.814715 -0.386206 173 23 78
-0.560431 -0.191681 0.790546 56 103 228
-0.848222 -0.444369 0.199679 19 70 152
0.175548 0.874162 0.052402 149 238 134
0.074577 -0.812188 -0.724574 137 23 35
-0.383567 -0.586819 -0.422222 78 52 73
0.647191 0.706350 -0.054363 210 217 120
0.157815 0.117215 -0.917853 147 142 10
0.947236 0.148224 0.547352 248 146 197
-0.696591 0.106839 -0.906480 38 141 11
0.007741 -0.473602 0.965532 128 67 250
-0.821940 0.060737 -0.421583 22 135 73
-0.293820 0.007603 -1.033665 90 128 -4
-0.058347 0.917602 -0.767306 120 244 29
0.197623 -0.152206 -0.989649 152 108 1
1.023814 -0.578509 -0.179292 258 53 104
0.141913 0.089333 -0.962541 145 138 4
0.008803 -0.056577 1.167106 128 120 276
0.860584 -0.102551 -0.743670 237 114 32
-0.555759 -0.157222 -0.790926 56 107 26
-0.340712 0.152338 -1.093076 84 146 -11
-1.041649 -0.590081 0.025422 -5 52 130
-0.008805 -0.557064 -0.775244 126 56 28
0.267702 -0.422718 0.846537 161 73 235
0.186387 -0.165301 0.863297 151 106 237
-0.722191 -0.420679 -0.253153 35 73 95
0.009223 0.003665 -0.815619 128 127 23
0.076431 -0.026599 -1.092781 137 124 -11
-0.457203 0.364547 0.739006 69 173 221
-0.232383 0.935821 -0.641739 97 246 45
0.482657 -0.544871 -0.879057 189 58 15
-0.713883 -0.871962 -0.028622 36 16 123
-0.428059 -0.941232 -0.318633 72 7 86
-0.122386 0.256737 1.017769 111 160 257
0.256928 -0.764063 0.430673 160 30 182
-0.803188 0.436128 0.244611 25 183 158
-0.659676 -0.466952 -0.199946 43 67 102
0.128661 0.338485 1.038389 143 170 259
0.314191 -0.038008 1.140872 167 122 272
-0.104459 -0.508180 -0.989283 114 62 1
-0.434249 0.356083 0.805071 72 172 230
-0.359190 0.865477 -0.740041 81 237 33
-0.975704 -0.510951 -0.019868 3 62 124
-0.033842 -1.027910 0.007550 123 -3 128
-0.617469 0.669064 0.511403 48 212 192
-0.281836 0.606602 -0.947388 91 204 6
-0.179099 0.465302 0.994474 104 186 254
-0.058821 0.728589 0.804096 120 220 230
-0.257552 0.271212 -0.715061 94 162 36
0.738660 -0.284949 0.668359 221 91 212
0.142876 -0.149424 1.085994 145 108 265
0.146266 0.196130 -1.095694 146 152 -12
-0.425035 -0.040024 -0.797926 73 122 25
-0.814681 -0.681459 -0.009234 23 40 126
-0.084107 -0.504460 0.743674 116 63 222
1.052279 -0.257513 0.035412 261 94 132
-0.511848 0.068888 -0.929704 62 136 8
0.048258 -0.092479 1.151884 133 115 274
0.249642 0.435834 0.990630 159 183 253
0.221621 0.190866 -0.827214 155 151 22
-0.053247 -1.044738 -0.204651 120 -5 101
-0.906115 0.163660 -0.418527 11 148 74
0.160274 -0.436063 0.966432 147 71 250
-0.764609 -0.174979 -0.381556 30 105 78
0.969028 0.440858 0.249305 251 183 159
0.044449 -0.855408 0.741269 133 18 222
-0.466650 -0.287368 0.955550 68 90 249
-0.139979 -0.321240 1.007333 109 86 255
0.817016 -0.309271 -0.439315 231 88 71
-0.371303 -0.573769 -0.480596 80 54 66
-0.147452 -0.034924 1.061157 108 123 262
0.186844 0.682976 -0.589173 151 214 52
-0.030869 0.017333 1.157251 123 129 275
0.473708 0.119858 0.660483 187 142 211
0.966091 0.243761 -0.212456 250 158 100
-0.041773 0.323937 1.065637 122 168 263
0.205166 -0.405380 0.740890 153 75 221
-0.023555 -0.037307 1.089143 124 122 266
-0.301376 0.689071 -0.402802 89 215 76
0.335627 0.658267 -0.664404 170 211 42
-0.673410 -0.339459 0.404963 41 84 179
-0.265211 0.559842 0.727316 93 198 220
0.449555 0.606998 -0.378782 184 204 79
-0.046227 0.619577 0.541700 121 206 196
-0.831759 0.518363 -0.628074 21 193 47
0.385419 1.014172 -0.511249 176 256 62
-0.111019 0.627945 0.586720 113 207 202
-0.419459 0.225164 -0.701139 74 156 38
0.605025 0.194967 0.975571 204 152 251
-0.083702 0.486046 -0.981175 116 189 2
-0.401780 0.615554 -0.461159 76 205 68
-0.221850 0.080496 -0.911791 99 137 11
-0.877011 -0.003478 0.465063 15 127 186
-0.910470 -0.609030 -0.277095 11 49 92
-0.209077 -0.924146 -0.227646 100 9 98
-0.963954 -0.109745 -0.513165 4 113 62
0.338546 -0.185921 -0.947003 170 103 6
-0.178112 -0.653888 0.837969 104 44 234
-0.309833 -0.023976 -0.943697 87 124 7
-0.165269 -1.044487 -0.101836 106 -5 114
-0.713348 0.511444 -0.362004 36 192 81
-0.509849 -0.082343 -0.722751 62 117 35
-0.851978 -0.010605 -0.017413 18 126 125
-0.458906 0.404283 -0.844959 68 179 19
0.236209 0.247290 0.930304 157 159 246
0.105783 0.149933 -0.817070 140 146 23
-0.441069 0.390856 0.832230 71 177 233
-0.360563 -1.019830 -0.084446 81 -2 116
-0.778278 0.321407 0.421903 28 168 181
0.366777 -0.859753 -0.049909 174 17 121
0.434404 -0.253289 0.836736 182 95 234
-0.079772 -0.676096 -0.656134 117 41 43
-0.547205 -0.411868 -0.964191 57 74 4
-0.045939 -0.979918 -0.359522 121 2 81
-0.633837 0.954021 -0.183835 46 249 104
0.196924 -0.554761 -0.629390 152 56 47
-0.690262 -0.157126 0.643219 39 107 209
0.750100 0.284232 -0.079392 223 163 117
-0.164089 0.650854 0.707309 106 210 217
0.378153 0.727763 0.099265 175 220 140
-0.633562 0.567177 -0.809933 46 199 24
-0.215080 -0.062363 -1.045062 100 119 -5
-0.567102 -0.651505 0.099033 55 44 140
-0.219323 -0.549728 -0.995101 99 57 0
-0.999528 -0.137992 -0.369969 0 109 80
-0.595866 -0.884162 0.230816 51 14 156
0.052825 -0.188601 0.958368 134 103 249
0.800814 0.231494 -0.374570 229 157 79
0.473535 -0.583591 0.454964 187 53 185
0.236183 0.333385 -0.731423 157 170 34
0.000105 -0.000149 -0.806390 127 127 24
0.295704 -0.404143 0.876835 165 75 239
-0.442856 -0.676415 -0.266425 71 41 93
0.829608 -0.040643 0.029673 233 122 131
-0.157469 -0.574142 0.785125 107 54 227
0.647457 -0.672400 0.458384 210 41 185
0.149948 1.059472 0.300900 146 262 165
0.106986 -0.660049 0.960727 141 43 249
0.243766 0.129676 -0.814858 158 144 23
0.203782 -0.877474 -0.140868 153 15 109
-0.792639 0.072650 0.702881 26 136 217
0.048936 0.905759 0.499546 133 242 191
0.286653 0.416275 1.081807 164 180 265
0.002761 -0.410200 -0.705529 127 75 37
0.875675 -0.418327 -0.357604 239 74 81
0.298775 0.036614 -0.935012 165 132 8
-0.118018 0.468293 -1.016094 112 187 -2
-0.354052 -0.114903 -0.934987 82 112 8
0.260396 -0.859779 0.287855 160 17 164
-0.799554 -0.283010 -0.542638 25 91 58
-0.472011 0.024722 0.731775 67 130 220
0.744110 -0.076309 0.760077 222 117 224
-0.138600 -0.097235 -1.071564 109 115 -9
0.037287 0.088085 -0.875013 132 138 15
-0.560372 0.204100 -0.756000 56 153 31
0.001305 0.004204 -0.809557 127 128 24
-0.798904 -0.170477 0.821936 25 105 232
0.354004 -0.487973 0.730831 172 65 220
1.088121 -0.084965 -0.324722 266 116 86
0.062991 0.255909 0.899959 135 160 242
-0.708278 -0.496147 0.229824 37 64 156
0.070724 0.864444 0.382684 136 237 176
0.005725 0.162049 -0.925771 128 148 9
0.002367 -0.035431 -0.969969 127 122 3
-0.033222 0.015796 0.880320 123 129 239
0.378401 -0.096707 1.059594 175 115 262
-0.132739 -0.695041 0.419851 110 38 181
0.192466 0.632767 -0.504571 152 208 63
-0.161771 0.056937 0.919108 106 134 244
0.858499 0.211781 0.417958 236 154 180
-0.557179 -0.186082 0.652007 56 103 210
0.186402 0.069816 -1.026831 151 136 -3
0.657843 -0.436372 -0.665149 211 71 42
-0.907621 -0.172565 0.167686 11 105 148
0.967644 0.254691 0.085620 250 159 138
0.677315 -0.827173 -0.362547 213 22 81
-0.490917 -0.033921 -0.803966 64 123 24
0.706590 0.327560 -0.778888 217 169 28
-0.103979 0.287898 0.764494 114 164 224
0.663380 0.487293 0.382698 212 189 176
-0.331850 -0.589680 -0.539282 85 52 58
-0.465292 0.999771 0.139020 68 254 145
0.535136 0.767221 0.020018 195 225 130
0.793821 0.224493 -0.077034 228 156 117
-0.228081 0.178966 -1.096301 98 150 -12
0.579252 -0.934387 0.389025 201 8 177
0.214468 -0.168928 -0.901415 154 105 12
-0.006989 0.003982 -0.823622 126 128 22
0.654787 0.679993 0.044356 210 214 133
-0.182970 -0.266007 1.152931 104 93 274
0.287574 -0.886980 0.052582 164 14 134
0.239367 0.850506 0.172154 158 235 149
0.491972 0.589603 -0.283303 190 202 91
-0.155032 -0.734578 0.388377 107 33 177
0.036451 -0.032121 1.173545 132 123 277
-0.124519 0.018820 -0.966995 111 129 4
-0.546829 -0.206181 0.706138 57 101 217
-0.963768 -0.495604 0.039376 4 64 132
0.589313 0.848434 0.185453 202 235 151
-0.111169 -0.042519 0.968466 113 122 250
0.220344 -0.927563 -0.694745 155 9 38
0.601551 0.327682 -0.472100 204 169 67
1.023070 -0.547376 0.218521 257 57 155
0.256906 -0.091792 0.795937 160 115 228
0.185039 -0.672175 0.792386 151 41 228
-0.065851 -0.029223 -0.878246 119 123 15
-0.467488 0.029446 -0.667299 67 131 42
-0.079625 -0.997765 0.410955 117 0 179
0.826872 -0.229023 -0.527056 232 98 60
-1.014972 0.545461 0.280503 -1 197 163
-0.059205 0.265129 0.882172 119 161 239
0.184786 0.349660 0.973418 151 172 251
-0.210980 -0.945338 -0.668144 100 6 42
-0.691509 -0.358771 0.318603 39 81 168
0.787354 -0.209101 -0.496914 227 100 64
0.368428 -0.782367 -0.070884 174 27 118
0.387121 0.666744 0.307228 176 212 166
0.321200 0.316044 -0.666055 168 167 42
-0.068116 -0.404514 -1.117579 118 75 -14
0.432990 -0.458404 0.522055 182 69 194
-0.112840 0.759304 -0.547087 113 224 57
0.011286 -0.008409 -1.048529 128 126 -6
0.137481 0.437443 0.660825 145 183 211
-0.762688 -0.054871 0.456134 30 120 185
0.086500 -0.209197 -1.002557 138 100 0
0.626160 0.870425 -0.389602 207 238 77
0.012614 0.609837 0.532993 129 205 195
0.405671 0.230535 -0.771499 179 156 29
0.585901 -0.420417 -0.608886 202 73 49
-0.804434 -0.717765 -0.166188 24 35 106
-0.068140 -0.780470 -0.738287 118 27 33
0.845665 0.003779 -0.073188 235 127 118
-0.949115 -0.262192 0.100404 6 94 140
0.491548 0.667169 -0.722163 190 212 35
0.519562 0.723668 0.519418 193 219 193
0.194407 -0.115730 0.841183 152 112 234
0.403363 -0.828985 -0.474580 178 21 66
0.148622 0.469370 -0.785161 146 187 27
-0.885131 -0.193459 -0.410966 14 102 75
0.278216 0.125058 -0.803254 162 143 25
0.080618 -0.012293 0.889586 137 125 240
0.370883 0.114175 -0.997345 174 142 0
0.120560 -0.055899 0.862803 142 120 237
-0.431406 0.273715 -0.631835 72 162 46
-0.330277 -0.772069 -0.704162 85 29 37
-0.150673 0.650063 0.611812 108 210 205
0.526715 -0.786454 0.733171 194 27 220
-0.511736 0.604669 0.566380 62 204 199
0.003987 1.179059 0.016035 128 277 129
0.353464 0.006636 -0.946308 172 128 6
0.421843 0.763553 -0.113223 181 224 113
-1.020639 -0.392209 -0.348483 -2 77 83
-0.053818 0.418611 0.833025 120 180 233
-0.383219 -0.108484 -0.812567 78 113 23
0.053373 -0.952034 -0.351150 134 6 82
-0.292594 -0.261450 0.895362 90 94 241
-0.204492 -0.917937 0.742777 101 10 222
0.264707 -0.577552 0.893830 161 53 241
-0.427532 -0.680229 -0.205428 72 40 101
0.157332 -0.488547 0.962253 147 65 250
-0.875436 -0.156490 0.163718 15 107 148
0.579583 -0.502430 -0.377181 201 63 79
-0.391867 0.281191 0.967359 77 163 250
0.093739 -0.811118 -0.016451 139 24 125
-0.372330 -0.997384 -0.058768 80 0 120
0.141522 0.038238 -1.013662 145 132 -1
0.524945 -0.454931 0.462845 194 69 186
-0.209134 -0.993422 -0.081232 100 0 117
-0.425743 -0.872960 0.381810 73 16 176
-0.419210 0.621544 0.616443 74 206 206
-0.382629 0.171584 -0.771886 78 149 29
-0.590735 -0.458087 -0.365480 52 69 80
0.504526 0.697812 0.330448 191 216 169
-1.032674 0.498601 0.097211 -4 191 139
-0.169027 0.073656 -0.894992 105 136 13
0.538854 0.218785 0.794211 196 155 228
-0.420138 -0.763112 -0.793279 73 30 26
-0.653151 -0.262059 0.495010 44 94 190
0.464328 -0.389355 -0.976482 186 77 2
-0.153455 0.020122 -0.811125 107 130 24
-0.420679 -0.823562 -0.740285 73 22 33
-0.256668 -0.432377 -0.643248 94 72 45
-0.106614 -0.041680 0.849127 113 122 235
-0.953203 0.620173 0.289723 5 206 164
0.041678 -0.475821 1.030024 132 66 258
0.347557 -0.335936 -0.718273 171 84 35
-0.793007 -0.109588 0.451309 26 113 185
-0.834286 0.039823 0.025879 21 132 130
-0.295623 -1.105327 0.156636 89 -13 147
-0.011724 0.001314 -0.814270 126 127 23
0.177786 -0.868506 0.435849 150 16 183
0.771014 -0.291780 0.720435 225 90 219
-0.097922 0.116441 0.892239 115 142 241
0.420916 0.199643 0.707826 181 152 217
0.278610 -0.663357 -0.895732 163 42 13
-0.260128 -0.842302 0.401964 94 20 178
-0.101171 -0.100394 -1.006163 114 114 0
0.061139 -0.314339 -1.099253 135 87 -12
-0.947669 0.154698 -0.700377 6 147 38
0.862603 -0.057324 -0.343600 237 120 83
-0.011505 0.022257 1.178936 126 130 277
-0.419745 -0.319660 -0.903739 73 86 12
0.750708 0.145840 -0.837628 223 146 20
0.925126 -0.341547 0.264413 245 83 161
0.610307 0.336476 0.426696 205 170 181
0.090289 0.153079 -1.073077 139 147 -9
-0.590728 -0.774422 0.316212 52 28 167
-0.218752 0.305548 -0.846460 99 166 19
0.207031 0.718213 0.587944 153 219 202
-0.279726 -0.898600 -0.660179 91 12 43
-0.344945 -0.390034 -0.743829 83 77 32
0.295779 -0.402006 0.767778 165 76 225
-0.025440 0.236646 -0.982067 124 157 2
0.997676 -0.192810 0.077657 254 102 137
0.233271 0.787101 -0.380820 157 227 78
0.113565 -0.774061 -0.428153 141 28 72
0.101589 0.020267 -0.887953 140 130 14
0.296060 -0.717414 0.256908 165 36 160
0.424857 0.405021 0.838914 181 179 234
-0.867920 -0.317260 0.307530 16 87 166
0.273216 0.804170 0.661329 162 230 211
0.503361 -0.822505 -0.456752 191 22 69
-0.139013 0.886868 0.644865 109 240 209
0.037800 0.980484 -0.681582 132 252 40
-0.529892 0.590846 0.432414 59 202 182
-0.516463 -0.800575 -0.398242 61 25 76
0.211042 -0.857031 0.570020 154 18 200
0.155841 -0.124720 0.839274 147 111 234
-0.603229 -0.500294 0.357412 50 63 173
-0.702695 -0.483081 -0.347425 37 65 83
-0.469489 0.404021 0.902985 67 179 242
0.414865 0.829795 0.535015 180 233 195
0.452920 0.236028 0.940707 185 157 247
0.483275 -0.673987 -0.055624 189 41 120
-0.114037 0.129260 0.937072 112 143 246
-0.007886 0.515087 0.820014 126 193 232
-0.374410 -0.684138 0.231364 79 40 156
