ply
format ascii 1.0
element vertex 1000
property float x
property float y
property float z
property uchar red
property uchar green
property uchar blue
end_header
0.061205 -0.749919 -0.409284 135 31 75
-0.553464 0.618754 -0.107058 56 206 113
-0.389113 -0.791675 -0.636855 77 26 46
-0.010500 -0.181870 1.144206 126 104 273
-0.187113 0.390459 0.876099 103 177 239
-0.120398 -0.918938 -0.010123 112 10 126
0.951078 0.455022 -0.521915 248 185 60
-0.290876 -0.296819 0.996075 90 89 254
-0.424744 -0.991196 -0.222155 73 1 99
0.062259 -0.193379 0.847578 135 102 235
-0.758895 -0.323192 -0.432857 30 86 72
-0.260939 -0.767726 -0.584474 94 29 52
0.314150 0.815155 -0.800988 167 231 25
-0.459389 0.762084 0.155940 68 224 147
-0.043963 0.169659 1.002378 121 149 255
-0.156628 -0.295060 0.787737 107 89 227
0.282299 0.180493 -1.068089 163 150 -8
-0.075194 -0.031956 0.816584 117 123 231
-0.384743 -0.154148 0.818255 78 107 231
-0.708842 0.529720 0.239206 37 195 157
0.563849 0.240014 -0.617618 199 158 48
0.080158 -0.304471 -0.881364 137 88 15
0.918994 0.113891 0.332254 244 142 169
0.809470 0.575540 -0.404940 230 200 75
-0.999807 0.042648 -0.114652 0 132 112
-0.559698 0.704647 0.456529 56 217 185
0.457163 1.050901 -0.099512 185 261 114
0.013058 -0.904804 -0.671741 129 12 41
-0.427612 0.675714 -0.819223 72 213 23
-0.259027 -1.075458 -0.106132 94 -9 113
0.658078 0.377024 0.535134 211 175 195
0.587924 -0.148688 -0.530001 202 108 59
0.813378 -0.162572 0.579427 231 106 201
0.836400 -0.692369 -0.379599 234 39 79
-0.493609 -0.361306 0.774103 64 81 226
0.093813 -0.281621 0.751522 139 91 223
-0.141007 -0.329484 1.026025 109 85 258
-0.301828 -0.144895 0.768848 89 109 225
-0.182021 -0.229714 0.763796 104 98 224
-0.270884 0.845954 -0.313285 92 235 87
0.753414 -0.050327 -0.279771 223 121 91
-0.153253 0.112857 1.180281 107 141 277
-0.334746 -0.019812 -0.823038 84 124 22
0.287987 -0.040937 -0.984884 164 122 1
0.669150 0.132138 -0.594816 212 144 51
0.233173 0.217263 -0.841398 157 155 20
0.610973 -0.840780 0.347233 205 20 171
0.203034 -0.186968 -0.881067 153 103 15
-0.095386 0.688908 -0.623990 115 215 47
0.564214 -0.236619 -0.599336 199 97 51
0.478358 0.125518 1.049730 188 143 261
0.679094 0.479762 -0.850492 214 188 19
0.093683 -0.865716 -0.501401 139 17 63
-0.281361 -0.411772 -0.796070 91 74 26
-0.010302 -0.027447 0.810422 126 124 230
0.523992 0.285629 -0.765760 194 163 29
0.221103 -0.146824 -0.937329 155 108 7
0.423586 0.174803 1.052835 181 149 261
-0.247000 -0.573787 0.585846 96 54 202
0.961959 0.432583 0.080206 250 182 137
-0.000408 0.000174 1.154992 127 127 274
-0.001726 -0.006862 -0.904535 127 126 12
0.254523 -0.097174 -0.960486 159 115 5
0.181359 0.372743 0.772898 150 175 226
0.597346 0.361343 0.769326 203 173 225
-0.032999 0.258707 -1.089958 123 160 -11
0.285314 -0.672888 0.486814 163 41 189
-0.969746 0.051103 0.555115 3 134 198
-0.767720 0.007090 -0.592192 29 128 51
0.979467 -0.241068 0.470978 252 96 187
-0.657371 -0.629765 0.619407 43 47 206
-0.030172 -0.337914 0.876884 123 84 239
0.451029 0.772538 -0.277773 185 225 92
0.601802 -0.418967 0.532672 204 74 195
0.368714 -0.020384 0.898508 174 124 242
0.779563 -0.660227 -0.274440 226 43 92
0.006145 0.003624 1.025685 128 127 258
0.830611 -0.803083 -0.226937 233 25 98
-0.189461 0.444970 -0.861759 103 184 17
0.238717 0.136797 0.864963 157 144 237
0.673104 -0.706890 -0.514970 213 37 61
0.474790 0.544927 0.526465 188 196 194
1.148920 -0.006628 -0.230110 273 126 98
1.040791 -0.017206 0.549185 260 125 197
-0.076856 -0.057117 -1.122282 117 120 -15
-0.148530 -1.132400 -0.121918 108 -16 111
-0.368649 -0.210756 -1.008033 80 100 -1
0.745570 0.252214 0.902178 222 159 242
0.431209 0.212517 -0.826219 182 154 22
0.409216 0.454720 0.968016 179 185 250
0.238541 -0.352702 0.900470 157 82 242
0.082222 -0.341507 -0.930228 137 83 8
0.002722 -0.005614 -1.047786 127 126 -6
-0.452345 -0.813837 -0.120605 69 23 112
0.390217 0.322642 0.869532 177 168 238
-0.263027 -0.135349 1.084280 93 110 265
0.104590 0.514692 -1.014974 140 193 -1
0.474849 -0.103499 0.885600 188 114 240
-0.876594 0.674830 -0.458333 15 213 69
-0.848214 0.516831 0.093581 19 193 139
-0.266730 -0.958342 -0.490998 93 5 64
0.713107 -0.593053 0.314896 218 51 167
0.292580 -0.557735 -0.916260 164 56 10
-0.351718 -0.114205 1.012952 82 112 256
0.019204 0.000022 -0.863963 129 127 17
-0.711813 -0.768152 -0.211118 36 29 100
0.585727 -0.767633 -0.315967 202 29 87
0.671196 -0.413614 -0.239331 213 74 96
-0.042423 -0.272819 1.025920 122 92 258
-0.009508 0.006471 0.858718 126 128 236
-0.413772 -0.064037 -0.731669 74 119 34
0.100044 -0.166224 -1.039607 140 106 -5
0.727310 0.377452 0.517830 220 175 193
-0.506425 -0.046430 0.850568 62 121 235
-0.601752 0.505713 -0.312344 50 191 87
0.299454 -0.550873 -0.569981 165 57 54
-0.647381 0.806986 -0.526362 44 230 60
-0.529805 0.416138 -0.925938 59 180 9
-0.675427 -0.458678 0.341697 41 69 171
-0.175703 0.583680 -0.913590 105 201 11
-0.809563 0.195855 0.540459 24 152 196
-0.549290 0.459320 0.621584 57 186 206
-0.791724 -0.520437 -0.398708 26 61 76
0.038824 0.216364 -0.800797 132 155 25
-0.008262 0.770088 0.823614 126 225 232
0.139711 0.200332 -0.821369 145 153 22
0.413589 0.305742 1.079986 180 166 265
-0.107432 0.680934 0.463122 113 214 186
1.035991 -0.159869 -0.470463 259 107 67
0.022425 0.038747 1.108640 130 132 268
0.017597 0.044405 -1.120323 129 133 -15
0.469283 -0.048372 -0.901675 187 121 12
0.696940 0.321942 -0.371469 216 168 80
0.792981 -0.290945 0.202798 228 90 153
0.867893 0.665558 0.121736 238 212 143
0.276799 -0.086636 -1.111970 162 116 -14
-0.209099 -0.250918 1.069535 100 95 263
0.510027 -0.819509 0.664557 192 23 212
0.654389 0.634352 -0.486029 210 208 65
0.256792 0.320570 0.922305 160 168 245
-0.500733 0.393367 0.499258 63 177 191
0.734200 -0.547193 -0.611874 221 57 49
0.077594 0.137508 -1.164465 137 145 -20
0.420392 -0.581437 -0.465374 181 53 68
-0.265382 0.755708 0.633766 93 223 208
-0.299725 0.757587 -0.854113 89 224 18
0.316868 -0.273753 0.840607 167 92 234
-0.631364 0.624370 0.492844 47 207 190
0.401755 -1.040118 0.072157 178 -5 136
-0.117946 -0.100542 -1.115972 112 114 -14
-0.667794 0.326376 -0.884454 42 169 14
-0.816021 -0.574935 0.471012 23 54 187
-0.274789 -1.004746 0.346510 92 0 171
-0.126761 0.122404 0.960082 111 143 249
0.445667 -0.807939 0.026257 184 24 130
0.858928 -0.671344 0.062175 237 41 135
-0.723114 -0.446684 0.226263 35 70 156
-0.469916 0.840445 -0.549943 67 234 57
-0.207514 -0.010859 -1.069471 101 126 -8
-0.151714 -0.334580 -0.873901 108 84 16
-0.421752 0.060714 -0.998365 73 135 0
-0.377253 0.113228 0.830479 79 141 233
-0.711937 -0.751871 -0.022445 36 31 124
0.102741 0.690826 -0.485884 140 215 65
-0.230402 -0.322112 1.113371 98 86 269
-0.047061 -0.007973 -1.103808 121 126 -13
-0.303360 0.936160 0.426363 88 246 181
0.785463 -0.366432 0.710739 227 80 218
0.089658 0.289740 0.852267 138 164 236
-0.107247 0.542326 -0.842290 113 196 20
0.127920 -0.025729 1.005854 143 124 255
-0.362993 -0.086777 -0.718570 81 116 35
0.128626 -0.039821 -0.999651 143 122 0
0.268247 -0.076934 1.118777 161 117 270
0.058080 -0.950614 -0.455996 134 6 69
0.754421 0.666476 0.066026 223 212 135
0.015116 0.676030 0.563322 129 213 199
0.083704 0.349435 -1.081883 138 172 -10
0.222306 0.036398 -0.906879 155 132 11
0.009289 -0.025662 1.115503 128 124 269
-0.214156 0.729004 -0.554938 100 220 56
-1.074110 0.265725 -0.212492 -9 161 100
-0.078584 1.065198 0.095779 117 263 139
-0.250962 0.464643 0.897851 95 186 241
-0.257153 0.800290 -0.320186 94 229 86
0.738413 0.073056 -0.431994 221 136 72
-0.292072 1.041779 0.381216 90 260 176
0.114668 0.321955 0.994553 142 168 254
0.813089 0.303924 0.351543 231 166 172
0.662700 0.529044 0.668663 211 194 212
-0.393193 -0.513380 0.497775 77 62 190
0.788682 0.511014 0.578802 228 192 201
-0.173594 -0.271666 0.842693 105 92 234
0.436257 0.059307 -0.997305 183 135 0
0.938987 -0.332871 0.166526 247 85 148
-0.383320 -0.765177 0.260078 78 29 160
0.081246 -0.017180 0.999666 137 125 254
0.567053 -0.517182 0.467004 199 61 187
0.848278 0.260707 0.468407 235 160 187
0.477934 0.353123 -0.926394 188 172 9
0.139613 -0.521097 0.907272 145 61 243
-0.294360 -0.360342 -0.863743 89 81 17
-0.000449 0.000501 0.871260 127 127 238
0.370661 -0.253856 -0.959120 174 95 5
-0.624166 -0.071719 -0.973222 47 118 3
-0.270154 -1.065149 0.392234 93 -8 177
-0.405884 -0.675879 0.696083 75 41 216
-0.117952 0.392462 1.001458 112 177 255
1.067875 -0.351105 -0.031335 263 82 123
0.600791 0.493539 -0.809203 204 190 24
-0.180869 -0.950506 -0.081489 104 6 117
0.799702 -0.812046 0.343375 229 23 171
0.693805 0.010860 -0.878100 215 128 15
-0.379791 -0.233182 -0.791224 79 97 26
-0.573014 0.467934 0.928014 54 187 245
0.094881 0.087199 -1.085310 139 138 -10
0.309309 -0.979728 -0.009312 166 2 126
-1.018830 0.574491 0.025435 -2 200 130
0.015610 0.011382 1.059079 129 128 262
0.238582 0.710388 0.293830 157 218 164
-0.114492 0.128549 -0.986123 112 143 1
-0.542868 -0.551311 0.860533 58 57 237
0.381051 0.049410 -0.920682 176 133 10
-0.177450 0.614736 -0.486271 104 205 65
-0.005059 0.637384 -0.753177 126 208 31
-0.237456 -0.488462 0.766964 97 65 225
0.383221 -0.311406 -0.659152 176 87 43
-0.054327 0.014873 0.915317 120 129 244
0.560118 0.911128 -0.125714 198 243 111
0.074868 -0.605227 0.975253 137 50 251
0.668396 0.263894 -0.418475 212 161 74
0.164538 1.171591 0.159541 148 276 147
0.673886 0.077937 -0.585090 213 137 52
0.580161 0.775874 -0.213290 201 226 100
0.003104 -0.010306 0.839805 127 126 234
0.450316 -0.422003 -0.770575 184 73 29
0.918142 -0.066786 0.102554 244 118 140
0.680909 0.216783 0.659905 214 155 211
0.688363 0.017203 -0.607747 215 129 50
-0.169481 -0.332166 0.959849 105 85 249
0.000283 -0.086000 1.130592 127 116 271
0.619167 -0.312307 -0.977713 206 87 2
0.042010 0.540219 -0.668063 132 196 42
0.084517 -0.354444 0.963471 138 82 250
-0.000341 0.245771 -0.955349 127 158 5
0.268217 -0.992199 -0.546102 161 0 57
-0.640201 -0.794422 0.567698 45 26 199
0.137580 0.985465 0.124944 145 253 143
0.002942 0.026610 1.012506 127 130 256
0.020268 -0.258651 1.092079 130 94 266
-0.997597 -0.257547 -0.103270 0 94 114
0.875979 -0.533378 -0.553395 239 59 56
-0.920037 0.279177 0.553925 10 163 198
-0.035161 0.022168 0.875328 123 130 239
0.653433 -0.134076 0.833714 210 110 233
-0.700715 0.150237 0.559155 38 146 198
0.394351 0.249336 -0.754540 177 159 31
0.489767 0.583899 -0.846954 189 201 19
-0.569949 -0.951600 0.091610 54 6 139
-0.733010 -0.571748 0.640795 34 54 209
0.006378 -0.843203 -0.581816 128 19 53
-0.616673 -0.350003 -0.545335 48 82 57
0.237273 0.273601 1.099573 157 162 267
-0.648150 0.541908 0.686390 44 196 215
-0.073652 0.265216 -0.825627 118 161 22
-0.689673 -0.273965 0.369918 39 92 174
0.866537 0.095518 -0.460986 237 139 68
0.000068 0.034242 0.881335 127 131 239
0.060760 1.177965 -0.015053 135 277 125
-0.315759 0.801462 -0.247446 87 229 95
0.220124 0.774300 -0.334100 155 226 84
0.523481 -0.740608 0.105388 194 33 140
0.779172 0.074185 -0.348067 226 136 83
-0.538663 -0.790848 -0.114924 58 26 112
-0.104321 -0.776751 0.606164 114 28 204
-0.620083 -0.673391 0.080455 48 41 137
0.043143 -0.794980 -0.363178 133 26 81
-0.674461 0.415487 -0.288859 41 180 90
0.790704 0.116626 0.669836 228 142 212
-0.035000 0.065129 -0.877714 123 135 15
-0.361766 -0.148211 -0.926276 81 108 9
0.702626 0.692579 0.221909 217 215 155
0.478168 0.719111 -0.363055 188 219 81
0.077788 0.290390 -0.811023 137 164 24
0.028597 -0.009016 0.885448 131 126 240
0.134873 0.145574 -1.118478 144 146 -15
0.390799 0.518912 0.535634 177 193 195
-0.572713 0.976919 -0.314976 54 252 87
0.792887 0.771667 -0.074558 228 225 117
-0.961443 0.314927 0.495700 4 167 190
0.285653 0.650565 0.624619 163 210 207
-0.644050 -0.613665 -0.766020 45 49 29
0.766764 0.081193 0.520807 225 137 193
-0.787703 0.720738 -0.468342 27 219 67
0.509972 -1.064706 -0.006673 192 -8 126
0.090255 0.611051 -0.952118 139 205 6
0.324834 0.033112 0.898188 168 131 242
-0.269229 0.481088 -0.922812 93 188 9
0.412472 0.905732 0.278482 180 242 163
0.346538 -0.025881 -0.796322 171 124 25
-0.043526 0.046433 0.847808 121 133 235
-0.134026 -0.101457 0.963355 110 114 250
0.724239 0.030238 -0.443576 219 131 70
-0.617201 0.759133 -0.052237 48 224 120
-0.023954 0.443651 -0.784024 124 184 27
0.435883 -0.692073 -0.300953 183 39 89
0.670145 -0.497399 -0.233742 212 64 97
0.038624 0.725286 0.791701 132 219 228
0.015502 -0.671589 0.882869 129 41 240
0.348030 -1.146562 0.024335 171 -18 130
0.453870 -1.014811 -0.183144 185 -1 104
-0.566470 1.018315 -0.239617 55 257 96
-0.207410 -0.292943 1.036001 101 90 259
0.148557 1.025604 0.062663 146 258 135
-0.713444 0.612172 0.230280 36 205 156
0.117434 -0.565437 -0.653461 142 55 44
-0.325010 -0.659992 0.737213 86 43 221
0.314269 -0.147874 -0.826458 167 108 22
0.317013 -0.715151 -0.316942 167 36 87
0.017205 -0.095924 -0.998850 129 115 0
-0.752463 0.631245 0.498653 31 207 191
-0.340648 0.745499 -0.642113 84 222 45
0.785369 -0.591100 -0.334895 227 52 84
0.590549 -0.957139 -0.186730 202 5 103
0.138862 0.865303 0.705663 145 237 217
-0.372712 0.146163 -1.050192 79 146 -6
-0.131710 1.019387 0.490269 110 257 190
0.298761 0.153081 -0.985109 165 147 1
-0.333796 0.073613 -1.026988 84 136 -3
-0.387207 0.078388 -1.119503 78 137 -15
-0.479777 -0.072955 -0.836461 66 118 20
0.854631 0.216852 -0.685124 236 155 40
0.353361 -0.564417 -0.997713 172 55 0
0.398302 0.713295 -0.761822 178 218 30
1.135986 0.007802 -0.252705 272 128 95
0.634711 0.897279 0.357752 208 241 173
0.905375 0.054097 0.284514 242 134 163
-0.059932 0.019958 0.974849 119 130 251
-0.554205 -0.270999 0.650298 56 92 210
-1.088943 0.099339 0.359701 -11 140 173
0.050697 0.154992 -0.836638 133 147 20
-0.524002 -0.683579 -0.207074 60 40 101
-0.750295 0.908223 -0.119030 31 243 112
0.124654 -0.551299 0.689546 143 57 215
-0.182956 0.613136 0.640922 104 205 209
-0.693646 0.684068 0.123504 39 214 143
0.017546 1.001503 0.034988 129 255 131
0.482809 0.243411 -0.754619 189 158 31
0.117606 -0.058179 -1.149344 142 120 -19
0.325347 -0.716217 -0.186385 168 36 103
-1.119079 -0.350824 -0.253808 -15 82 95
-0.356123 -0.394498 0.600186 82 77 204
0.168829 0.452933 0.683190 149 185 214
0.658184 -0.329232 0.488106 211 85 189
-0.286797 -0.475477 0.894265 90 66 241
-0.281296 -0.168305 0.781901 91 106 227
-0.230204 -0.940488 -0.124396 98 7 111
-0.197317 -0.109989 -1.142371 102 113 -18
-0.147659 -0.228183 0.896002 108 98 241
-0.348570 0.684318 -0.695727 83 214 38
-0.662124 0.664528 -0.385848 43 212 78
-0.055524 -0.628546 -0.968623 120 47 4
-0.088323 -0.172081 -0.898124 116 105 12
0.355002 -0.580083 0.560186 172 53 198
-0.129567 -0.362258 0.899458 110 81 242
0.978079 0.212533 0.480934 252 154 188
-0.117447 -0.030939 1.022390 112 123 257
0.498844 -0.146580 0.979308 191 108 252
0.658519 -0.319869 0.766681 211 86 225
0.366996 -0.192998 0.764256 174 102 224
-0.003320 0.224039 -1.176670 127 156 -22
0.549547 0.499862 0.510070 197 191 192
-0.265888 0.853376 -0.324874 93 236 86
0.685736 0.381123 -0.196688 214 176 102
-0.860330 -0.794813 0.204103 17 26 153
-0.024518 0.023571 0.982298 124 130 252
0.226901 -0.141447 0.788919 156 109 228
0.794000 0.032071 -0.330280 228 131 85
-0.843000 0.321353 -0.493127 20 168 64
0.890743 -0.206147 0.309172 241 101 166
0.767897 0.076757 -0.275456 225 137 92
-0.711901 0.140345 -0.834246 36 145 21
-0.457383 -0.813830 -0.405385 69 23 75
-0.374918 0.774216 -0.172775 79 226 105
0.262587 -0.187005 1.127002 160 103 271
-0.845968 0.408682 -0.444114 19 179 70
-0.449987 -0.770095 0.275163 70 29 162
0.803221 -0.261917 -0.382057 229 94 78
0.271882 -0.611872 0.650703 162 49 210
0.699498 -0.435017 0.242079 216 72 158
0.008761 -0.934273 -0.655154 128 8 43
0.559503 -0.807683 0.397194 198 24 178
0.739950 -0.273081 0.414459 221 92 180
-0.097570 -0.218948 0.841269 115 99 234
0.083405 0.713583 -0.893395 138 218 13
-0.629459 -0.113469 -0.923276 47 113 9
-0.488000 -1.000797 0.186249 65 0 151
1.011359 -0.299697 0.505846 256 89 191
0.129649 0.071767 -1.066990 144 136 -8
-0.146712 -0.222873 0.881328 108 99 239
0.352644 0.127821 -0.760491 172 143 30
-0.069070 -0.132152 -1.009071 118 110 -1
0.008881 -0.014451 -0.978116 128 125 2
0.294031 -0.363197 -0.755692 164 81 31
0.247087 0.021910 0.769247 159 130 225
-0.587800 -0.392001 -0.911643 52 77 11
-0.065268 0.070260 0.938250 119 136 247
-0.421953 0.901772 -0.554092 73 242 56
-1.005082 -0.516365 -0.366179 0 61 80
-0.604745 -0.542035 0.038837 50 58 132
0.809646 -0.107307 -0.407902 230 113 75
-0.464132 -0.586882 -0.776318 68 52 28
-0.968420 0.256703 -0.012721 4 160 125
-0.233987 0.347842 1.063379 97 171 263
0.031620 -0.991837 0.655584 131 1 211
-0.577543 0.677180 0.036138 53 213 132
-0.934732 -0.396592 0.009819 8 76 128
0.023494 -0.063107 -1.104664 130 119 -13
-0.366816 0.877145 -0.213471 80 239 100
-0.553166 0.383863 0.906146 56 176 243
-0.481878 -0.568361 -0.291689 66 55 90
0.508847 -1.037766 0.119366 192 -4 142
0.181919 -0.248650 -1.007121 150 95 0
-0.167975 0.204637 0.994179 106 153 254
0.040628 -0.976889 0.422083 132 2 181
-0.020139 0.031367 -0.811645 124 131 24
-0.319507 0.805456 -0.361867 86 230 81
-0.213219 0.891451 -0.261089 100 241 94
0.748334 0.235478 0.857026 222 157 236
-0.105905 -1.020883 -0.396703 113 -2 76
-0.378100 0.746713 -0.251999 79 222 95
1.157161 -0.064051 -0.243951 275 119 96
0.047308 -0.100055 0.814755 133 114 231
0.302083 0.757260 -0.844808 166 224 19
-0.071357 -0.275910 -0.918376 118 92 10
0.603315 -0.243067 0.897802 204 96 241
-0.059956 -0.070182 0.950602 119 118 248
0.152854 1.006553 -0.174584 146 255 105
-0.187016 -0.726801 0.889873 103 34 240
-0.036916 -0.054342 -1.128050 122 120 -16
-0.782032 0.633834 0.389710 27 208 177
-0.817772 0.177118 0.636697 23 150 208
0.153328 -0.722141 0.798092 147 35 229
0.006387 0.094163 -1.086577 128 139 -11
0.035258 0.192739 -0.861538 131 152 17
0.248192 -0.141465 -0.760696 159 109 30
0.125856 -0.278020 0.887339 143 92 240
-0.193075 -0.762714 -0.375015 102 30 79
0.528318 0.575310 0.541979 194 200 196
0.569798 -0.087188 -0.787672 200 116 27
0.720469 -0.897861 -0.144691 219 13 109
0.754743 0.532102 0.136961 223 195 144
0.543387 0.084693 0.811094 196 138 230
-0.659034 0.241612 -0.891767 43 158 13
0.560256 -0.780053 -0.251151 198 28 95
-0.243275 -0.564412 -0.657613 96 55 43
-0.857772 -0.014783 -0.171971 18 125 105
0.878610 0.328372 -0.231378 239 169 97
0.018562 0.036312 0.969632 129 132 251
-0.900045 -0.331960 -0.038188 12 85 122
-0.111010 -1.032896 -0.406085 113 -4 75
-0.045778 0.069517 1.044548 121 136 260
-0.023741 -1.046521 -0.270656 124 -5 92
0.308285 0.669436 -0.557865 166 212 56
-0.509064 0.281109 -0.950058 62 163 6
-0.369593 -0.312882 0.856998 80 87 236
0.518422 -0.119619 -0.907629 193 112 11
0.590907 0.180119 0.516427 202 150 193
0.158483 -0.477682 1.080417 147 66 265
-0.533632 0.814280 0.009894 59 231 128
-0.199534 1.117300 0.100902 102 269 140
0.645235 -0.021718 -0.911814 209 124 11
0.112048 -0.587110 -0.686742 141 52 39
0.381634 -0.020637 1.106646 176 124 268
-0.174720 0.080429 1.105206 105 137 268
-0.765335 0.653941 -0.184375 29 210 103
0.891325 0.593772 0.027276 241 203 130
0.223996 -0.261904 0.912289 156 94 243
0.480106 -0.389261 -0.594827 188 77 51
-0.182663 -0.841434 -0.012813 104 20 125
-0.332822 0.067049 0.867818 85 136 238
0.673543 -0.440084 -0.177525 213 71 104
-0.388987 -0.067047 0.738778 77 118 221
-0.144926 -0.052201 -0.850700 109 120 19
-0.382334 -0.615726 -0.879484 78 48 15
-0.362488 -0.170372 -1.026494 81 105 -3
0.787721 0.136254 0.551761 227 144 197
-0.919643 0.189732 -0.698525 10 151 38
0.756053 -0.732439 0.012847 223 34 129
0.636927 -0.951122 0.195656 208 6 152
0.702243 -0.386300 -0.875791 217 78 15
0.816379 -0.034584 -0.453772 231 123 69
0.957333 -0.381811 -0.211685 249 78 100
-0.187128 -0.029008 -0.872146 103 123 16
0.299401 -0.754901 -0.391161 165 31 77
-0.039754 -0.063689 0.964518 122 119 250
-0.522563 0.191501 -0.761358 60 151 30
0.381608 0.583476 0.939009 176 201 247
0.050619 0.510211 0.832449 133 192 233
-0.399155 0.472418 0.967059 76 187 250
-0.152264 0.417434 -0.938237 108 180 7
-0.546081 0.043774 -0.862421 57 133 17
0.458820 0.524069 0.942968 185 194 247
-0.355946 -1.013653 0.175299 82 -1 149
-0.059618 0.148625 -0.784773 119 146 27
-0.718181 0.586694 0.047187 35 202 133
-0.050871 -0.180068 1.068449 121 104 263
-0.106514 0.006671 1.070984 113 128 264
-0.710965 -0.788794 0.001514 36 26 127
-0.256960 -0.150533 -0.756381 94 108 31
0.327983 1.017330 0.061494 169 257 135
-0.095801 0.916901 -0.586076 115 244 52
-0.518647 0.259681 -0.963443 61 160 4
-0.069721 -0.336592 -0.817841 118 84 23
-0.411179 -0.745130 0.219394 75 32 155
-0.045370 0.203076 1.061602 121 153 262
0.248509 0.234421 0.770769 159 157 225
-0.628517 -0.114500 0.791536 47 112 228
0.214635 0.130738 -1.049299 154 144 -6
0.846680 0.293282 -0.449857 235 164 70
0.214929 -0.044848 -0.960827 154 121 4
0.211428 0.100325 0.930863 154 140 246
-0.803881 -0.171471 -0.375224 25 105 79
-0.402162 0.085211 0.954274 76 138 249
-0.766077 -0.200453 0.251459 29 101 159
-0.286514 -0.782262 0.311183 90 27 167
0.904765 0.736623 0.196509 242 221 152
0.888474 -0.282377 -0.270018 240 91 93
0.334738 0.730047 -0.716359 170 220 36
0.677657 0.398705 -0.420015 213 178 73
0.507010 0.282483 -0.656521 192 163 43
0.009988 -0.000320 -0.839307 128 127 20
-0.688839 0.406407 -0.516628 39 179 61
-0.149500 -0.907841 -0.661875 108 11 43
-1.081743 -0.083632 0.374944 -10 116 175
0.579923 -0.595550 0.168809 201 51 149
0.329488 0.909362 -0.449847 169 243 70
0.325254 -0.412791 -0.717103 168 74 36
-0.442653 -0.281270 0.646825 71 91 209
0.539489 -0.775879 0.590210 196 28 202
-0.226630 0.151322 0.860565 98 146 237
0.029118 0.303324 1.017763 131 166 257
0.056679 -0.682653 0.969310 134 40 251
0.337740 -0.300592 0.747343 170 89 222
0.453597 0.672319 0.318559 185 213 168
0.417726 -0.021670 0.734602 180 124 221
0.229732 0.813103 0.344855 156 231 171
-0.314306 0.891048 0.025110 87 241 130
0.429286 0.624464 0.368159 182 207 174
-0.873028 -0.212856 0.370327 16 100 174
-0.999235 -0.452529 0.256384 0 69 160
0.694415 -0.735134 -0.263116 216 33 93
-0.152878 0.189191 0.870069 108 151 238
-0.643003 -0.486051 0.060127 45 65 135
-1.067003 -0.430742 -0.289063 -8 72 90
0.039991 0.040187 0.903079 132 132 242
-0.461746 -0.937635 -0.070149 68 7 118
-0.584681 -0.150670 0.825163 52 108 232
0.327798 -0.339831 0.817459 169 84 231
-0.952683 0.217683 -0.211456 6 155 100
0.878296 -0.286854 -0.204666 239 90 101
0.390203 0.654514 0.604478 177 210 204
0.536635 0.919736 0.112307 195 244 141
0.997440 -0.050497 -0.575961 254 121 54
-0.059158 0.810039 0.695899 119 230 216
-0.095571 0.382163 -1.061711 115 176 -7
0.057601 0.008875 -1.017557 134 128 -2
-0.076120 0.902658 0.166585 117 242 148
0.093416 -0.316334 -0.774750 139 87 28
0.227426 -0.250002 0.835211 156 95 233
0.489226 0.169978 -0.711493 189 149 36
-0.750057 -0.305614 -0.020093 31 88 124
-0.024059 -0.004543 -1.150872 124 126 -19
0.256901 -0.323980 -0.734507 160 86 33
0.938979 -0.157884 -0.432424 247 107 72
0.034451 -0.033082 1.162015 131 123 275
0.892725 -0.319945 0.168378 241 86 148
0.243884 0.908963 0.525065 158 243 194
-0.511970 -0.331666 0.838487 62 85 234
-0.106988 0.643241 0.701232 113 209 216
-0.674596 -0.802848 0.583174 41 25 201
0.444933 -0.474143 -0.968337 184 67 4
-0.804366 -0.177782 -0.696972 24 104 38
0.822789 0.183482 0.796599 232 150 229
-0.934262 0.680928 -0.127577 8 214 111
-0.098470 -0.092734 -0.946191 114 115 6
-0.027938 0.020653 -0.829216 123 130 21
0.699340 -0.822221 -0.485320 216 22 65
-0.687628 -0.193414 -0.723443 39 102 35
0.223305 0.016717 -0.817395 155 129 23
0.810976 0.746191 -0.169303 230 222 105
-0.369993 -0.188475 -1.038988 80 103 -4
0.213093 -0.220522 0.872390 154 99 238
0.267596 0.356311 -0.907618 161 172 11
-0.072231 -0.109652 -0.906373 118 113 11
0.183951 -0.451281 -1.049986 150 69 -6
0.510537 0.494921 -0.457606 192 190 69
-0.102087 0.153728 -0.908361 114 147 11
0.975122 0.504397 -0.037499 251 191 122
0.397479 -0.625296 0.356974 178 47 173
-0.818280 -0.831419 -0.229937 23 21 98
0.349003 0.434850 -0.775634 171 182 28
0.071286 -0.085785 0.867360 136 116 238
-0.289162 0.622683 -0.618809 90 206 48
0.503753 -0.617206 0.429784 191 48 182
-0.152761 -0.155301 -0.838442 108 107 20
0.604739 0.443016 -0.684697 204 183 40
-0.294935 0.273024 0.845408 89 162 235
0.056825 0.163597 0.918742 134 148 244
-0.854637 -0.354010 -0.102482 18 82 114
-0.675493 0.133458 -0.482482 41 144 65
-0.012342 -0.616839 1.027897 125 48 258
0.821263 -0.428636 0.267290 232 72 161
0.040506 -0.000268 -1.027837 132 127 -3
-0.246385 -0.795240 -0.318801 96 26 86
-0.069298 -0.996019 -0.240805 118 0 96
0.715338 -0.339465 0.220805 218 84 155
-0.006116 0.478504 -1.023222 126 188 -2
-0.197470 0.648681 0.612569 102 210 205
0.010774 -0.066826 0.970670 128 118 251
-0.341818 0.658341 -0.402559 83 211 76
0.068140 -0.601674 -0.735148 136 50 33
-0.701469 -0.056116 0.874393 38 120 238
-0.186564 1.084370 -0.263288 103 265 93
0.834215 -0.480313 0.115155 233 66 142
0.763006 0.077220 0.548722 224 137 197
0.148017 -0.728511 0.330986 146 34 169
0.849165 -0.219985 -0.490544 235 99 64
0.078638 -0.146517 -0.824011 137 108 22
0.242855 0.985081 0.210772 158 253 154
0.608857 -0.156739 0.766865 205 107 225
0.555084 -0.793110 -0.416674 198 26 74
0.318488 0.355523 0.804765 168 172 230
0.067471 0.677376 0.643131 136 213 209
-0.045371 0.765137 -0.710233 121 225 36
0.204469 -0.008032 0.783963 153 126 227
-0.714788 -0.342270 -0.413211 36 83 74
0.781116 -0.182829 -0.249699 227 104 95
0.088630 0.427360 0.890655 138 181 241
0.099763 -0.469358 0.659072 140 67 211
0.393771 0.073364 -0.860635 177 136 17
0.040575 0.066557 0.947449 132 135 248
1.042940 0.398746 -0.091805 260 178 115
-0.316955 0.693962 -0.513684 87 215 62
0.191850 -0.952122 0.248340 151 6 159
0.577922 0.550183 -0.346637 201 197 83
-0.599271 0.571249 -0.233544 51 200 97
-0.376848 0.285722 0.952276 79 163 248
0.069069 1.175002 0.183666 136 277 150
-0.570158 -0.530779 0.661974 54 59 211
0.375334 0.809665 -0.566479 175 230 55
1.036765 0.167639 0.255895 259 148 160
-0.514559 0.475517 0.415216 61 188 180
-0.071969 0.202669 0.912846 118 153 243
0.215477 0.071784 -0.945904 154 136 6
0.537119 -0.829918 0.615157 195 21 205
-0.779891 0.457989 0.101142 28 185 140
-0.625607 -0.199524 0.829339 47 102 233
-0.643491 -0.053771 0.568559 45 120 199
1.104300 0.392346 -0.074496 268 177 118
0.631700 0.439200 0.506785 208 183 192
-0.266639 -0.121562 -0.833168 93 112 21
0.129700 -0.004833 -0.912338 144 126 11
-0.698615 0.843288 0.015229 38 235 129
0.258422 -0.151757 1.068987 160 108 263
0.584859 -0.556066 -0.067016 202 56 118
0.630666 -0.633392 0.120128 207 46 142
0.642164 -0.006524 0.704161 209 126 217
0.229311 -0.473894 0.779145 156 67 226
0.385758 -0.818224 0.548392 176 23 197
0.223918 -0.081427 0.874576 156 117 239
-0.587687 -0.198268 0.867747 52 102 238
0.637496 -0.379645 -0.357813 208 79 81
-0.185388 -0.216748 -1.106798 103 99 -13
0.755044 -0.629407 -0.143542 223 47 109
-0.174784 -0.621625 -0.610853 105 48 49
0.835654 -0.335217 -0.667732 234 84 42
0.234684 -0.878346 0.137453 157 15 145
0.269180 0.230580 -0.813052 161 156 23
0.133433 -0.085547 1.165166 144 116 276
0.387286 -0.837973 0.146107 176 20 146
-0.003131 0.215483 -0.848919 127 154 19
-0.278900 -0.919513 -0.633767 91 10 46
-0.247983 0.898260 -0.535894 95 242 59
-0.058708 0.938646 -0.260278 120 247 94
0.659236 0.017096 0.811428 211 129 230
0.557122 0.032190 0.827186 198 131 232
0.232510 -0.375478 -0.710474 157 79 36
0.139865 0.139482 -0.884376 145 145 14
-0.185531 -0.020895 -0.797737 103 124 25
0.578635 -0.200801 0.585537 201 101 202
-0.021491 0.817637 -0.626396 124 231 47
0.670147 0.367230 -0.883219 212 174 14
0.462143 0.340815 0.604440 186 170 204
1.068772 -0.533956 -0.006780 263 59 126
0.022324 -0.235458 -0.887238 130 97 14
-0.006542 0.088132 -0.801379 126 138 25
0.185069 0.841373 -0.132070 151 234 110
0.363379 0.159738 -0.926020 173 147 9
-0.067302 1.004402 -0.160847 118 255 106
-0.857591 -0.348670 -0.073300 18 83 118
0.134286 -0.655856 0.516542 144 43 193
0.728536 0.380127 -0.802096 220 175 25
-0.352256 0.176666 1.061884 82 150 262
-0.457915 0.002747 0.956115 69 127 249
-0.455534 0.665262 -0.377218 69 212 79
-0.039657 -0.412628 -1.005872 122 74 0
-0.632056 0.805078 0.515404 46 230 193
-0.463240 -0.701224 -0.472770 68 38 67
0.329527 -0.085210 -0.774869 169 116 28
0.222917 -0.818820 -0.256047 155 23 94
0.007384 0.000930 -1.040098 128 127 -5
-0.068629 -0.896027 -0.133779 118 13 110
-0.443547 0.592340 -0.451141 70 203 69
0.503196 -0.740097 -0.624510 191 33 47
-0.432428 0.990355 0.276566 72 253 162
0.217832 -0.581966 0.533576 155 53 195
-0.512041 0.366926 -0.716900 62 174 36
-0.827904 0.489294 -0.294805 21 189 89
0.448612 -0.628732 0.797021 184 47 229
0.180723 -0.478261 -0.846930 150 66 19
-0.134609 -0.254655 0.782676 110 95 227
-1.089284 0.031975 0.052930 -11 131 134
-0.099658 -0.787235 -0.720249 114 27 35
0.740704 0.391713 0.054980 221 177 134
-0.647605 -0.002961 -0.894816 44 127 13
0.545465 0.634790 0.569612 197 208 200
-0.213834 -0.843767 -0.409039 100 19 75
0.056834 -0.646011 0.776750 134 45 226
0.354092 0.820177 0.173558 172 232 149
0.088074 0.189183 1.021970 138 151 257
-0.022678 0.829369 -0.264754 124 233 93
-0.768281 -0.590124 0.006966 29 52 128
0.751128 0.305279 0.426943 223 166 181
0.101169 0.655840 -0.740466 140 211 33
-0.077123 0.216038 1.155612 117 155 274
-0.259508 -0.003826 0.814135 94 127 231
-0.418189 0.286389 -0.803572 74 164 25
0.245201 -0.917180 -0.150519 158 10 108
0.120621 0.852276 -0.761843 142 236 30
-0.362330 -0.527868 -0.889914 81 60 14
0.818772 0.449337 0.629221 231 184 207
0.009044 -0.006949 -1.112588 128 126 -14
0.044382 -0.026281 1.156297 133 124 274
-0.977366 -0.198441 0.629654 2 102 207
0.293509 -0.915911 0.018985 164 10 129
-0.596349 0.835204 -0.234346 51 233 97
-0.195621 0.254959 1.030321 102 160 258
-0.180600 -0.368057 -0.904646 104 80 12
-0.173613 -0.120481 -1.006634 105 112 0
-0.012054 -0.836930 -0.676839 125 20 41
-0.033699 0.177973 -1.087633 123 150 -11
-0.067645 0.007361 -0.955077 118 128 5
0.136958 0.624717 0.565139 144 207 199
-0.926055 0.629177 0.190490 9 207 151
-0.855707 0.045778 -0.208880 18 133 100
0.021444 -0.092188 -0.986714 130 115 1
0.092192 -0.489016 0.877559 139 65 239
0.087165 -1.112889 0.111136 138 -14 141
-0.046528 0.103619 -0.867877 121 140 16
-0.488703 -0.176072 -0.867835 65 105 16
0.237202 0.065616 -0.974439 157 135 3
-0.117343 0.732231 -0.571114 112 220 54
-0.560444 -0.160241 0.583351 56 107 201
0.171444 0.228343 -1.085575 149 156 -10
-0.009572 0.742071 -0.695566 126 222 38
0.741154 0.057788 -0.345730 221 134 83
-0.195321 -0.085257 -0.939472 102 116 7
0.775229 0.409586 -0.646619 226 179 45
0.032896 -0.910378 0.582349 131 11 201
-0.069871 -0.891888 0.145223 118 13 146
0.135797 0.777943 -0.238757 144 226 97
-0.023401 -0.583855 0.562691 124 53 199
0.777501 0.106161 -0.675403 226 141 41
0.057924 -0.294983 -0.769329 134 89 29
-0.052809 -0.544805 0.800888 120 58 229
0.065988 -0.466513 -0.851953 135 68 18
-0.888917 -0.169085 -0.407233 14 105 75
0.526148 0.481187 -0.402098 194 188 76
0.110397 -0.990045 -0.266625 141 1 93
0.814274 -0.739565 0.010339 231 33 128
-0.142190 -1.038510 -0.536369 109 -4 59
-0.745666 -0.337398 0.220919 32 84 155
1.044165 -0.288819 -0.086622 260 90 116
-0.400323 -0.115858 1.066101 76 112 263
0.160023 -0.023565 -1.170606 147 124 -21
0.485107 0.594621 -0.601162 189 203 50
0.172772 -0.632672 -0.918194 149 46 10
0.356923 -0.223887 -0.922877 173 98 9
-0.446123 -0.010215 -0.745070 70 126 32
0.189575 -0.215612 -1.027991 151 100 -3
-0.136683 0.554905 -0.713415 110 198 36
0.828329 0.377508 0.512858 233 175 192
-0.310326 0.856854 -0.724564 87 236 35
0.331217 0.922769 -0.272821 169 245 92
-0.578047 -0.261583 0.636615 53 94 208
-0.873899 0.079895 -0.026929 16 137 124
-0.035631 -0.487516 0.861252 122 65 237
-0.029495 -1.080294 0.300207 123 -10 165
0.494264 -0.753645 0.677098 190 31 213
0.055185 -0.003875 0.974912 134 127 251
-0.188751 -0.083019 -1.009721 103 116 -1
0.073603 -0.306377 -1.080188 136 88 -10
0.861112 0.714779 0.349760 237 218 172
0.607755 0.261405 0.864154 204 160 237
0.773338 0.223138 0.152075 226 155 146
0.088350 -0.788878 -0.707735 138 26 37
0.292428 -0.908539 -0.430923 164 11 72
-0.156092 -0.826791 0.604604 107 22 204
0.230788 -0.350294 0.943552 156 82 247
-0.798387 0.275179 0.738469 25 162 221
-0.670416 -0.366085 -0.528215 42 80 60
0.722466 -0.035305 0.565214 219 122 199
0.375901 -0.506397 -0.695563 175 62 38
-0.013904 -0.112914 -1.008407 125 113 -1
-0.391813 0.405108 -0.663374 77 179 42
-0.330563 -0.863789 0.636493 85 17 208
-0.734273 0.502293 -0.308018 33 191 88
-0.490812 0.412934 0.915234 64 180 244
0.919669 -0.132961 -0.630265 244 110 47
-0.662386 -0.021207 0.598427 43 124 203
1.108882 0.007662 0.141304 268 128 145
0.966112 0.490468 -0.151990 250 190 108
-0.414648 -0.754612 -0.553500 74 31 56
-0.368593 -0.768493 -0.631192 80 29 47
0.360287 -0.752750 -0.144467 173 31 109
-0.625713 -0.413208 -0.324531 47 74 86
0.021516 -0.053359 0.833201 130 120 233
-0.345225 0.348989 0.797531 83 171 229
-0.006219 0.005165 0.976806 126 128 252
-0.891836 0.418361 -0.387294 13 180 78
0.093463 -0.531125 -0.854249 139 59 18
-0.028332 0.004014 0.875489 123 128 239
-0.083835 0.284827 -0.894948 116 163 13
0.352761 -0.755576 0.783268 172 31 227
-0.069112 -0.017624 1.054656 118 125 261
0.644389 -0.343596 0.566470 209 83 199
-1.060184 -0.528851 0.142824 -7 60 145
0.539260 0.581507 0.493860 196 201 190
0.393181 0.868132 -0.566560 177 238 55
0.565480 -0.263960 0.633366 199 93 208
0.369633 0.442245 0.880781 174 183 239
0.924806 -0.316888 0.229634 245 87 156
-0.188266 -0.853922 0.187372 103 18 151
-0.408748 0.668042 0.424825 75 212 181
-0.809544 0.456143 0.382338 24 185 176
0.793008 -0.751634 -0.342523 228 31 83
0.698486 -0.074899 0.950173 216 117 248
0.370170 0.827100 0.294160 174 232 165
-0.519616 0.980920 0.094376 61 252 139
-0.191800 0.184811 -1.019564 103 151 -2
0.251077 -0.296932 1.083652 159 89 265
-0.001616 -0.039363 -1.196409 127 122 -25
-0.998712 -0.628710 0.162099 0 47 148
0.439924 -0.233665 -0.892500 183 97 13
1.009819 -0.051689 0.140453 256 120 145
0.028668 -0.964596 -0.481720 131 4 66
-0.911235 -0.376679 -0.676266 11 79 41
-0.303329 -1.074094 0.316968 88 -9 167
1.018291 0.550619 -0.121018 257 197 112
0.299814 0.638855 0.892884 165 208 241
0.197596 0.250485 1.063325 152 159 263
0.988160 -0.351117 0.504648 253 82 191
-0.200536 -0.069581 0.795792 101 118 228
-0.081080 -1.113251 -0.231863 117 -14 97
-0.314941 -0.912348 0.491098 87 11 190
-0.778027 -0.047398 0.662910 28 121 212
0.398677 0.889695 0.416568 178 240 180
-0.706114 0.449636 -0.417226 37 184 74
-0.539199 -0.473147 0.836303 58 67 234
-0.591242 -0.538810 0.493539 52 58 190
-0.431889 -0.436697 0.552079 72 71 197
0.985401 -0.175747 -0.620787 253 105 48
0.549112 -0.391233 -0.891844 197 77 13
-0.016895 -0.029944 -0.927839 125 123 9
-0.914084 0.682782 0.145257 10 214 146
-0.427520 -0.422054 1.022131 72 73 257
-0.228747 -0.149189 1.050208 98 108 261
-0.739315 0.484443 0.138758 33 189 145
0.242787 1.040454 -0.522395 158 260 60
-0.692418 -0.175190 0.810148 39 105 230
-0.585662 -0.010584 0.755228 52 126 223
0.198098 0.582571 0.651025 152 201 210
0.584176 0.223768 -0.761165 201 156 30
-0.100850 -0.046477 -1.038670 114 121 -4
0.101898 0.784237 -0.741869 140 227 32
0.815178 -0.605293 0.080550 231 50 137
-0.290487 0.753216 -0.238697 90 223 97
0.393490 0.128922 -0.858690 177 143 18
-0.272773 0.439313 0.974265 92 183 251
-0.163432 -0.063559 -0.841386 106 119 20
0.049380 -0.667675 -0.520672 133 42 61
0.731741 0.254960 -0.777323 220 160 28
-0.375559 -0.375774 -0.998563 79 79 0
0.649059 0.790503 0.554187 210 228 198
-0.093399 -0.392747 -0.822460 115 77 22
0.074461 0.514287 -0.734773 136 193 33
0.844368 0.053969 -0.110503 235 134 113
0.431749 -0.369274 -0.895439 182 80 13
0.010967 -0.570170 -0.854661 128 54 18
-0.606363 0.732412 -0.131359 50 220 110
0.049160 0.403324 -0.857303 133 178 18
-0.241461 -0.834072 -0.393259 96 21 77
-0.247587 -0.498129 -0.925804 95 63 9
-0.000868 0.141964 0.915149 127 145 244
-0.149760 -0.495918 0.632033 108 64 208
-0.354525 -0.513235 -0.612354 82 62 49
0.172967 -0.102176 -1.091414 149 114 -11
-0.419796 -0.515102 0.911573 73 61 243
-0.171241 -0.240694 -1.077366 105 96 -9
0.027001 0.054933 0.962848 130 134 250
0.332763 0.761540 -0.002751 169 224 127
0.056146 -1.174072 -0.171784 134 -22 105
-0.879745 0.520453 -0.140544 15 193 109
-0.196141 -0.519611 -0.584655 102 61 52
-0.017115 0.003764 0.836505 125 127 234
0.225575 0.183459 -1.114802 156 150 -14
0.306292 -0.802532 -0.754572 166 25 31
-0.073121 -0.838861 -0.606690 118 20 50
0.780205 -0.346958 0.186357 226 83 151
0.070713 -0.021279 1.041314 136 124 260
1.121912 -0.240556 0.278870 270 96 163
-0.006328 -0.393455 1.130587 126 77 271
-0.629332 -0.352922 -0.802181 47 82 25
0.227962 -0.007733 0.786719 156 126 227
-0.248306 -0.469963 0.873675 95 67 238
-0.283617 0.318242 -1.030693 91 168 -3
0.119409 -0.932477 0.309121 142 8 166
0.604219 -0.624899 -0.077320 204 47 117
0.324904 -0.151374 -0.787963 168 108 27
-0.053372 1.033613 0.122233 120 259 143
-0.248538 0.049373 0.993379 95 133 254
-0.701158 0.738616 -0.225861 38 221 98
0.021458 0.227057 0.887238 130 156 240
0.970986 0.370099 0.344265 251 174 171
-0.112601 -0.045108 -1.070176 113 121 -8
-0.289154 0.066159 -0.804244 90 135 24
-0.504413 -0.118561 -0.953718 63 112 5
-0.698299 -0.583592 0.380918 38 53 176
-0.264433 0.244250 -0.966349 93 158 4
0.017161 0.068578 -0.984752 129 136 1
0.397207 -0.257819 0.987207 178 94 253
-0.750212 -0.180997 0.764885 31 104 225
-0.110254 0.824498 -0.839498 113 232 20
-0.576634 0.665224 0.661388 53 212 211
0.941228 0.370537 0.450015 247 174 184
0.031727 -0.010829 0.975463 131 126 251
0.155291 0.892803 0.060469 147 241 135
-0.705094 0.653286 0.699190 37 210 216
0.703792 0.158874 -0.719904 217 147 35
-0.045768 0.084006 0.846218 121 138 235
0.372774 -0.274626 -0.863886 175 92 17
-1.088671 0.357035 -0.099847 -11 173 114
-0.245587 -0.639365 -0.744211 96 45 32
0.041075 -0.057008 -0.902595 132 120 12
1.090195 0.169787 -0.053146 266 149 120
0.075975 -0.374694 -0.875757 137 79 15
0.200424 0.315136 -0.915919 153 167 10
0.110727 0.067251 -0.862610 141 136 17
0.495615 0.714201 -0.627018 190 218 47
-0.733469 -0.171588 -0.865622 33 105 17
0.137578 0.077330 -0.937835 145 137 7
0.989644 -0.632442 0.133279 253 46 144
0.064780 0.024699 0.932162 135 130 246
-0.077553 -0.452841 0.864929 117 69 237
0.817185 0.411023 0.409564 231 179 179
-0.783804 -0.170658 0.485825 27 105 189
0.393700 -0.088320 0.728980 177 116 220
-0.498875 -0.389243 0.523554 63 77 194
0.366613 0.546491 -0.740066 174 197 33
0.655479 -0.459790 0.510693 211 68 192
0.875354 0.313302 -0.123208 239 167 111
1.084771 0.130367 -0.086103 265 144 116
-0.945365 0.493518 -0.436330 6 190 71
-0.132534 -0.017048 -0.993473 110 125 0
0.160063 -1.022329 -0.244870 147 -2 96
-0.411551 0.774270 0.763135 75 226 224
0.208675 -0.096902 1.119019 154 115 270
-0.221479 -0.298169 0.723334 99 89 219
0.385679 -0.292580 0.672961 176 90 213
-0.007246 -0.865741 0.817768 126 17 231
0.232055 -0.054881 -0.805717 157 120 24
0.585788 -0.754125 0.646164 202 31 209
0.371681 0.750278 0.348851 174 223 171
-0.775262 0.681946 -0.157368 28 214 107
0.251131 -0.313337 -0.918117 159 87 10
-0.706267 -0.379207 -0.422388 37 79 73
-0.722116 0.356332 -0.145461 35 172 108
-1.022116 0.290174 -0.389458 -2 164 77
-0.043343 0.350144 1.140599 121 172 272
-0.037358 0.390674 -0.776803 122 177 28
0.473647 0.153731 0.760970 187 147 224
-0.972216 0.320382 0.229754 3 168 156
-0.776351 -0.442012 -0.692653 28 71 39
0.668503 0.278960 0.406631 212 163 179
0.909167 0.238482 0.513113 243 157 192
-0.924768 -0.043875 -0.441731 9 121 71
0.507946 -0.141422 -0.657923 192 109 43
-0.293997 -0.103813 -1.007463 90 114 0
0.245309 0.003775 -1.139475 158 127 -17
