ply
format ascii 1.0
element vertex 1183
property float x
property float y
property float z
property uchar red
property uchar green
property uchar blue
end_header
0.175224 0.386875 0.989672 173 183 209
0.260038 1.256758 0.785584 177 221 200
-0.555340 0.214797 -1.572048 140 175 95
0.116709 0.109612 -0.548701 170 170 141
-0.061718 -0.319381 0.684698 162 151 196
-0.330390 -0.948295 0.024031 151 123 166
0.134334 0.160958 1.349479 171 172 225
-0.725800 -0.682955 -1.281819 133 135 108
0.408960 -0.307559 -0.231374 183 152 155
-0.717080 0.270356 -0.281630 133 177 153
0.125829 0.762098 0.768725 171 199 200
-1.176236 0.732767 0.147359 113 198 172
-0.914245 -1.409560 -0.548422 124 102 141
0.006627 0.009843 0.546971 166 166 190
0.663476 -0.554159 -0.107209 195 141 160
-0.515132 0.146130 0.918798 142 172 206
0.184147 0.448673 1.220721 173 185 220
-0.763673 0.723018 -1.329255 131 198 106
-0.398129 -0.437895 -0.093702 147 146 161
0.541187 -0.282605 0.672090 189 153 195
-0.579693 -0.933028 0.521502 139 124 189
0.861118 0.801624 -0.649287 204 201 136
1.495366 0.009850 0.898165 232 166 205
0.473903 0.342052 0.018324 186 181 166
-0.078148 -0.096486 -0.762178 162 161 131
-0.990114 0.621391 0.097547 121 193 170
-1.058651 -0.063393 0.908589 118 162 206
1.288494 0.987020 -0.529212 223 209 142
0.291308 0.103241 -0.483523 178 170 144
0.407771 0.498733 -0.442590 183 188 145
0.305991 -1.068623 -0.516633 179 118 142
-0.417333 1.203926 -0.045059 147 219 163
-0.844923 1.150165 -0.713511 128 217 133
-0.406625 -0.115498 0.124499 147 160 171
0.048648 0.397538 0.744935 167 183 198
1.035439 -0.203263 -0.002299 211 156 165
-0.795171 1.069054 -0.619706 130 213 138
-1.257400 0.729882 0.991010 109 198 209
-0.448817 0.241265 -0.239886 145 176 155
0.004888 0.014239 0.797749 165 166 201
-0.106094 -0.755317 0.882728 161 132 205
-0.550753 0.570844 1.192424 141 191 218
0.758352 -1.488002 0.561541 199 99 190
0.179464 -0.169793 -0.401103 173 158 147
-0.485570 0.489756 0.242247 144 187 176
-1.086337 -0.317707 0.303465 117 151 179
0.058138 0.066082 1.437380 168 168 229
-0.425243 0.183396 -1.537706 146 173 97
-0.074627 0.449896 -0.069443 162 185 162
0.815793 0.159932 -0.025490 202 172 164
1.011897 -0.290342 -0.148680 210 152 159
-1.048033 0.493436 0.871807 118 187 204
-0.558626 1.446966 0.547094 140 230 190
0.341518 -0.087416 -0.501566 180 161 143
0.202571 0.752900 0.336343 174 199 180
-0.721865 -0.729914 -0.571234 133 133 140
-0.184426 1.329685 0.641435 157 225 194
0.861106 0.098784 1.521554 204 170 233
-0.180348 0.130367 0.388959 157 171 183
-0.759646 -0.356310 -0.310362 131 149 151
0.681535 -0.861596 -0.045373 196 127 163
-1.076062 0.682379 0.868124 117 196 204
0.742146 0.652210 1.451356 198 194 230
0.121914 -0.086362 0.392810 171 161 183
0.027371 0.019398 0.787255 166 166 200
-0.165826 0.198466 -1.073178 158 174 117
-1.146242 -0.500850 -0.586980 114 143 139
-0.802586 -1.347307 0.318027 129 105 179
0.027597 0.416942 -0.081876 166 184 162
-0.307681 -0.838234 0.035479 152 128 167
0.002717 -0.414411 -0.979577 165 147 122
1.324398 -0.048263 -0.280625 224 163 153
-0.119499 -0.013679 -1.730596 160 165 88
-0.026872 0.002130 0.585330 164 165 191
-0.456820 -0.410524 0.319836 145 147 180
0.176711 -0.344635 -1.186294 173 150 112
-0.169479 0.152764 1.291452 158 172 223
0.974044 -0.986624 -0.720163 209 121 133
-0.488659 -0.210158 -0.342123 143 156 150
0.266412 0.431138 -0.661096 177 184 136
-0.946748 -0.364803 0.676362 123 149 195
-0.893672 -0.862106 -0.573892 125 127 140
1.643560 -0.047698 0.442381 239 163 185
-0.188586 -0.503894 0.125691 157 143 171
-0.113378 0.046223 -0.781988 160 167 130
-0.196287 -0.082999 1.065591 156 162 213
-1.333264 0.282772 0.416335 106 178 184
0.219943 1.567267 -0.778286 175 235 131
-0.121459 -0.513621 0.026054 160 142 166
-0.005935 -0.390281 0.597792 165 148 192
-0.451140 -0.502152 0.893966 145 143 205
0.180914 -0.082544 -1.356657 173 162 105
0.249588 0.997059 1.323769 176 210 224
0.394404 0.084158 0.358058 183 169 181
-0.256290 -0.225449 0.636750 154 155 194
-0.302948 0.210575 1.087998 152 175 214
-1.454561 0.206699 -0.128330 100 174 160
-0.580565 -0.803715 -1.387403 139 129 103
-0.048929 -0.185524 0.494264 163 157 187
-0.258997 0.640422 0.270595 154 194 177
-0.455022 0.770072 -0.506774 145 200 143
0.832502 -0.085942 1.077688 202 161 213
-1.136069 0.561188 -1.170281 115 190 113
0.134348 -0.009934 0.376187 171 165 182
-0.432291 0.703790 -0.121023 146 197 160
-0.029564 0.646120 0.826548 164 194 202
0.220497 1.267192 0.211763 175 222 175
-0.823497 1.401882 -0.609823 129 228 138
0.372713 0.279745 -0.323450 182 178 151
-0.004567 -0.003440 -0.861488 165 165 127
-0.300326 -0.306830 1.065065 152 152 213
-0.125143 -0.107378 1.418347 160 160 229
0.080780 0.058205 -1.760765 169 168 87
0.136615 0.390805 -0.299216 171 183 152
0.349070 0.464959 0.631119 181 186 193
0.188522 0.230362 0.998095 174 176 210
-1.034575 -0.899135 0.624513 119 125 193
0.966069 0.182203 1.468302 208 173 231
0.037621 0.445441 0.229396 167 185 175
-0.688974 -0.117940 -0.480905 135 160 144
0.012327 0.922099 0.537617 166 206 189
-0.104014 -0.891581 1.008570 161 125 210
0.205446 -1.493227 0.867419 174 99 204
-0.128210 -0.219102 0.386037 160 155 182
-0.254035 0.587117 -0.496324 154 191 143
0.008323 0.344806 -0.998996 166 181 121
-0.086629 0.242637 1.379974 161 176 227
1.096394 1.377666 -0.415225 214 227 147
0.423209 -0.238254 -0.005194 184 155 165
0.417383 0.719195 -0.413812 184 197 147
0.512426 -0.202128 -1.034225 188 156 119
-0.214956 -0.589103 -1.142615 156 139 114
-0.544800 0.029979 1.503264 141 167 232
-0.519077 -0.055689 0.072088 142 163 168
0.565125 -0.152000 -0.370506 190 158 149
0.010529 0.490454 0.936357 166 187 207
0.078543 -0.459862 1.371206 169 145 226
-0.378908 0.292308 -1.555686 148 178 96
0.339402 0.233309 -0.293727 180 176 152
-0.517277 0.423801 -0.585038 142 184 139
0.082412 1.026048 -0.357390 169 211 149
0.313694 0.330889 -1.389264 179 180 103
-0.719854 -1.155039 0.843577 133 114 203
-0.250500 -0.485335 -0.006292 154 144 165
-0.203779 0.091532 -0.789263 156 169 130
-0.426068 -0.945637 0.171549 146 123 173
0.895045 -0.563879 0.763409 205 140 199
-1.233569 1.099047 -0.454652 110 214 145
-0.091256 0.120052 -0.382934 161 171 148
0.033875 -0.180956 -0.678713 167 157 135
-0.836492 0.040994 0.614155 128 167 193
1.356770 -0.466023 -0.037915 226 144 164
0.193366 -1.192372 -1.051691 174 112 118
0.186381 -0.101092 0.462188 174 161 186
0.545838 0.191706 0.409516 190 174 184
0.456808 0.061394 -1.018102 186 168 120
0.359254 1.270750 -0.277021 181 222 153
0.567095 0.433277 -1.495269 191 185 99
0.032467 -0.162370 -0.500621 167 158 143
0.104071 -0.017993 0.861859 170 164 204
-0.544583 -0.341329 -0.990697 141 150 121
-0.752178 -1.106952 0.530419 132 116 189
-0.802604 1.264410 1.021068 129 222 211
0.000325 0.025483 -0.468727 165 166 144
0.138597 0.011134 0.831070 171 166 202
-0.811197 0.638825 0.020744 129 194 166
-0.020142 0.017829 1.388118 164 166 227
-1.137003 -0.986825 0.671064 115 121 195
0.111429 -0.107953 -0.495525 170 160 143
-0.379562 0.591355 0.410171 148 192 184
-0.235374 0.193713 -1.018900 155 174 120
-0.600031 -0.176160 1.242674 138 157 221
0.360757 -0.189190 1.672674 181 157 240
-0.117574 -0.205874 -0.278835 160 156 153
0.325797 0.640907 0.199064 180 194 174
0.205107 -0.153882 -1.082121 174 158 117
-0.010300 0.002407 -1.254070 165 165 109
-0.172873 -0.680964 1.627384 158 135 238
-0.530091 0.177121 -0.111430 142 173 160
0.479162 0.171550 -0.616797 187 173 138
-0.297095 -0.638679 -0.902709 152 137 125
0.040810 0.013096 -1.361155 167 166 105
-0.102872 1.158893 -1.259405 161 217 109
0.250012 -0.014988 -0.309274 176 165 151
-0.333128 -0.031759 -0.780488 150 164 130
-0.220942 -1.130523 -0.281819 155 115 153
-0.611746 -0.592971 1.115675 138 139 215
0.116518 0.625389 -1.539365 170 193 97
0.045575 0.018820 -0.505141 167 166 143
0.283629 -0.675201 -0.162484 178 135 158
0.378533 -1.004285 0.354460 182 120 181
-0.431342 -1.258436 0.288606 146 109 178
0.219448 -1.598102 0.724263 175 94 198
-0.230930 -0.335422 -0.321315 155 150 151
0.050728 -0.040654 -0.826125 168 163 128
-0.783586 -0.086857 0.700879 130 161 197
0.594164 -0.575127 -0.948836 192 140 123
-0.681247 -1.181997 -1.137198 135 113 115
0.117453 -0.128239 -0.494268 170 160 143
0.311193 0.170385 0.765897 179 173 199
-0.769075 -0.281970 0.505488 131 153 188
0.141775 -1.123170 -1.005347 172 115 120
0.317936 1.312784 -0.973573 179 224 122
-0.001217 0.001511 0.524264 165 165 189
-0.578433 -0.441826 -0.250649 139 146 154
-1.057999 -0.183533 -0.531215 118 157 142
0.178297 0.010236 -1.459878 173 166 100
0.094251 -0.172905 1.726533 169 158 242
-0.041779 0.069930 0.462447 163 168 186
-0.230777 0.125191 0.780746 155 171 200
0.885550 0.261103 -0.639708 205 177 137
0.413429 -1.271297 -0.314824 184 109 151
0.145131 -1.758021 -0.232941 172 87 155
0.045190 0.082603 -0.540544 167 169 141
-0.758117 0.580930 0.087784 131 191 169
0.068322 -0.170406 1.031097 168 158 211
0.230951 -0.505792 1.237842 176 143 220
0.020975 -1.555242 -0.522438 166 96 142
-0.189003 -0.036142 0.528910 157 164 189
0.252800 0.353971 0.757624 177 181 199
-0.063394 0.140280 1.002455 162 172 210
0.378666 0.072327 1.337044 182 168 225
0.140801 -0.232436 1.551900 172 155 235
0.140028 -0.425406 -0.114175 171 146 160
0.492105 -0.006915 -0.658932 187 165 136
-0.111493 -0.683901 0.898838 160 135 205
-0.256542 0.317709 -1.247089 154 179 110
0.863041 -0.673917 -1.432035 204 135 101
0.315813 -0.033208 -0.468753 179 164 144
-0.442984 0.677492 0.211226 145 195 175
0.577575 -0.732446 0.666099 191 133 195
-1.171767 0.345364 0.805822 113 181 201
-0.152282 0.065754 -1.638597 158 168 92
-0.017512 -0.390548 0.429654 164 148 184
-0.259949 -0.236505 -0.656091 154 155 136
-0.141821 0.999261 0.101630 159 210 170
0.566840 1.193369 -0.161258 191 219 158
-1.497833 0.763890 0.571132 98 199 191
0.572613 -0.055766 -0.140713 191 163 159
-0.061415 0.582618 0.377618 163 191 182
-0.343631 0.759596 0.567154 150 199 191
0.123817 -1.339446 0.028212 171 105 167
0.901577 0.697966 -1.151938 205 196 114
0.083382 0.355504 0.158587 169 181 172
-0.042366 0.609165 0.421702 163 192 184
0.653911 -0.942110 -0.009623 194 123 165
-0.255664 -1.143025 0.844332 154 114 203
-0.961682 -1.353009 -0.439279 122 105 146
0.008987 -0.359915 -0.419960 166 149 147
0.217055 -0.651366 0.413052 175 136 184
0.546914 -0.499398 0.850533 190 143 203
-1.223269 0.608568 0.472762 111 192 186
-0.223572 0.831094 1.454593 155 202 230
0.029359 -0.376114 0.201524 167 148 174
-0.654007 -0.032585 -0.462362 136 164 145
-0.175667 0.637225 0.873355 157 194 204
-0.863494 1.092801 0.189879 127 214 174
1.300179 -0.145194 -0.935612 223 159 123
-0.441550 0.180677 0.066863 146 173 168
0.289525 0.198244 -0.714434 178 174 133
-0.340998 0.318143 1.021792 150 179 211
0.190712 -0.707250 -1.145871 174 134 114
-1.083552 0.865262 1.065221 117 204 213
0.111768 0.080106 0.510461 170 169 188
-0.481805 0.536121 0.459314 144 189 186
0.275402 0.965946 -0.063797 178 208 162
0.589635 0.151930 -1.204092 192 172 112
0.045923 0.237981 1.782661 167 176 245
0.122100 0.455364 -0.035280 171 186 164
-0.551782 0.484872 -0.021119 141 187 164
0.522897 0.682635 -0.808257 189 196 129
-0.151918 1.428853 0.069385 158 229 168
-1.416882 -0.456277 -0.692273 102 145 134
-0.535401 0.161999 -0.004668 141 172 165
-0.774752 0.232784 0.089164 131 176 169
-0.370800 -1.044283 -0.257354 149 119 154
-0.008304 0.007612 -1.428336 165 166 102
0.093837 -0.025382 -1.778489 169 164 86
0.123116 0.162739 0.312675 171 173 179
-0.556551 -0.321815 -0.332830 140 151 150
-0.134698 0.045105 0.985180 159 167 209
0.260870 0.377266 1.357341 177 182 226
-0.205004 0.102660 -1.763363 156 170 87
0.487347 0.250480 -0.185892 187 176 157
-0.458925 -0.131843 -0.789291 145 159 130
0.129669 -0.985802 -0.228082 171 121 155
-1.401416 -0.325269 -0.068882 103 151 162
0.417103 -1.428758 0.975229 184 101 209
0.221266 0.453546 -0.135848 175 185 159
-0.569335 0.039484 -0.549545 140 167 141
-0.697232 0.798082 0.306188 134 201 179
-0.701529 -0.137891 -1.128558 134 159 115
-1.707256 -0.362198 0.132604 89 149 171
-0.223033 0.273891 0.332507 155 177 180
-0.865783 0.240108 0.084140 127 176 169
0.048214 -0.182377 -1.095483 167 157 116
-0.240807 1.030863 1.076033 155 211 213
-1.591465 -0.232437 0.406717 94 155 183
0.170741 -0.274110 0.312092 173 153 179
-0.721617 -0.317245 -0.413262 133 151 147
0.620073 0.059937 -1.041928 193 168 119
-0.091429 -0.365988 1.312542 161 149 224
-0.289215 -0.259361 -1.621973 152 154 93
-0.386184 0.156430 -0.345115 148 172 150
0.323019 -0.053621 -0.695934 180 163 134
0.381791 0.125008 0.965227 182 171 208
-0.542119 0.962544 0.990096 141 208 209
-0.499481 -1.574579 0.061562 143 95 168
-0.023081 0.065016 0.550163 164 168 190
0.406855 0.603685 0.387746 183 192 183
-0.399720 -0.735724 0.733119 147 132 198
0.534021 0.903160 -1.078539 189 206 117
-1.386852 0.977896 -0.461273 103 209 145
0.105833 -0.112864 0.503704 170 160 188
-0.182540 0.029968 -0.713670 157 167 133
0.640661 0.681021 -0.217076 194 196 156
0.397925 -0.580754 -1.310529 183 139 107
0.272461 0.268708 -1.547700 177 177 96
0.345920 -0.261768 -0.158242 181 154 158
-0.332488 0.357085 0.514873 150 181 188
-0.943069 -0.513474 -0.384270 123 142 148
0.583919 -0.647015 0.932990 191 136 207
0.784641 -1.182179 0.980548 200 112 209
-0.005965 0.071117 0.440274 165 168 185
0.196483 0.353336 0.615515 174 181 193
-0.139228 -0.107239 -1.114927 159 160 115
0.688774 -0.827822 -0.880792 196 128 126
1.245579 -0.559793 1.121440 221 140 215
-0.055472 -0.115792 -0.497045 163 160 143
0.240102 0.099460 -0.649121 176 170 136
-0.883278 0.479346 0.242452 126 187 176
-0.025092 -0.045943 -1.509570 164 163 98
-0.882171 -0.045236 1.448013 126 163 230
-0.526698 -0.085065 0.261710 142 161 177
-0.206498 0.292561 -0.838257 156 178 128
0.359965 -0.025322 1.063152 181 164 213
0.015716 -0.027897 1.364238 166 164 226
1.411445 0.141763 1.076945 228 172 213
0.350109 0.100018 0.361163 181 170 181
-0.012605 -0.352680 -0.813219 165 150 129
0.562279 -0.672171 -0.715280 190 135 133
0.287368 -0.784110 1.150606 178 130 217
-1.152506 -1.186934 -0.703378 114 112 134
0.146852 -0.058518 0.490760 172 163 187
-0.295448 -0.151888 -0.644003 152 158 137
-0.075320 1.106661 0.204759 162 215 174
0.836554 0.290673 1.211662 203 178 219
0.681988 0.001328 1.501776 196 165 232
0.193814 0.054074 -0.550608 174 168 141
-0.026590 0.053282 -0.760695 164 168 131
-0.821075 -0.033665 0.642370 129 164 194
-0.914418 0.998816 0.583225 124 210 191
0.363447 -1.571063 -0.270219 181 95 153
-0.423454 -0.323587 -0.098229 146 151 161
0.148575 0.089711 0.750159 172 169 199
-0.054729 -1.008791 -0.423905 163 120 146
1.162179 -0.146745 -0.711086 217 159 134
0.557964 1.632121 -0.012081 190 238 165
0.554236 0.040152 0.274738 190 167 178
0.757116 -0.100084 0.210757 199 161 175
-1.075540 0.407450 0.158023 117 183 172
-1.151523 0.256019 0.600716 114 177 192
-0.201179 0.087898 -1.774314 156 169 86
-0.526064 0.257884 -0.144773 142 177 159
0.027211 -0.898090 0.279811 166 125 178
-0.235551 0.170850 0.953393 155 173 208
-0.429904 -1.260954 0.563430 146 109 190
0.095340 0.096307 1.622011 170 170 238
0.044983 0.018874 -0.402105 167 166 147
0.141664 -0.057072 0.692351 172 163 196
-0.746268 -0.384871 0.697402 132 148 196
0.936955 0.305111 -1.133394 207 179 115
-1.301515 1.016206 0.275960 107 211 178
-0.051239 0.092815 -0.556510 163 169 140
-0.694004 0.262054 -0.012556 134 177 165
0.743432 -0.773472 0.332076 198 131 180
0.610084 1.194014 -0.056490 192 219 163
-0.697217 0.842071 -1.317249 134 203 106
-0.091149 0.390827 0.227763 161 183 175
-0.215833 -0.336407 -0.584031 156 150 139
0.516690 -0.183749 0.982229 188 157 209
1.277340 -0.115216 0.547136 222 160 190
1.709956 0.219075 -0.088353 242 175 161
-0.147532 -0.540043 -0.088036 159 141 161
-0.532668 -0.483830 -0.137856 141 144 159
0.536993 0.806692 0.526927 189 201 189
0.087160 -0.064054 -1.413906 169 162 102
-1.575571 0.545817 0.281222 95 190 178
0.397427 0.063150 -0.148547 183 168 159
-0.029812 0.809799 0.225479 164 201 175
0.328963 -0.494370 -0.870027 180 143 126
0.109321 1.198600 -0.848531 170 219 127
0.202702 -1.310643 1.065654 174 107 213
-0.249251 0.112542 0.295980 154 170 178
0.125870 0.516410 0.657793 171 188 195
-0.084076 -0.024273 -1.016886 161 164 120
0.812022 0.169399 1.093004 201 173 214
1.480536 0.600845 -0.501604 231 192 143
-0.229049 -0.474345 -0.171442 155 144 158
-0.654091 -0.133902 0.457229 136 159 186
0.846831 -0.287878 -0.714181 203 152 133
0.959715 0.067115 -1.011092 208 168 120
1.113791 -1.075300 0.856109 215 117 203
0.317578 0.224358 0.337353 179 175 180
0.108821 -0.036111 0.718020 170 164 197
-0.600783 0.227644 -0.858074 138 175 127
0.754357 -0.845275 -0.770335 199 128 131
-1.253092 0.516335 0.872211 109 188 204
0.178557 -0.034772 -0.431901 173 164 146
-0.138561 0.767888 0.030943 159 200 167
-0.742086 -0.225772 0.585299 132 155 191
-0.313543 0.281785 1.449556 151 178 230
-0.754805 -0.770886 -1.235737 132 131 110
0.282765 -0.392542 -0.095451 178 148 161
0.010536 0.017251 0.836420 166 166 203
-0.585335 0.496863 0.717921 139 187 197
1.228186 -0.044896 -0.614958 220 163 138
-1.767033 -0.218451 -0.202119 86 156 156
0.597247 0.022166 0.148019 192 166 172
0.052417 0.761071 0.046474 168 199 167
0.525764 -0.778334 0.721697 189 131 197
0.490641 0.071924 -1.296791 187 168 107
1.577844 -0.511151 0.636150 236 142 194
0.056514 -0.040488 -0.422541 168 163 146
0.280351 0.599186 0.240243 178 192 176
0.463482 -0.529097 0.845963 186 142 203
0.393876 -0.115251 -1.372020 183 160 104
1.232973 0.434839 -1.041220 220 185 119
-0.357252 0.185677 0.347072 149 174 181
-0.243327 0.674037 0.265096 154 195 177
-0.120865 -0.098353 -1.177399 160 161 113
-1.383264 0.244139 0.215173 104 176 175
0.145423 -0.438606 -1.714125 172 146 89
0.384701 0.463666 -0.019918 182 186 164
-0.079883 0.112511 0.659826 162 170 195
0.800332 0.742317 0.274933 201 198 178
-0.453519 1.215564 0.436949 145 219 185
-0.415713 0.555117 -1.473647 147 190 99
0.093719 -0.060668 0.429796 169 163 184
0.478663 0.242669 0.714323 187 176 197
0.351016 -1.112744 -0.022833 181 116 164
0.826018 -1.057881 -0.428511 202 118 146
0.236454 0.959536 -1.350309 176 208 105
0.103795 -0.101018 -0.374823 170 161 149
-0.461962 0.370467 0.660766 145 182 195
0.130328 -0.307162 -1.129034 171 152 115
0.982497 0.885296 0.475163 209 205 186
-0.523864 -0.185314 1.564873 142 157 235
-0.029065 -0.054362 -0.601214 164 163 138
-0.254072 -0.057728 0.615773 154 163 193
0.545772 -0.778663 0.724690 190 131 198
-1.140724 -0.944898 -0.195674 114 123 157
0.635161 0.805166 1.433309 194 201 229
-0.001059 -0.264860 -0.376274 165 153 148
-0.105667 0.219705 0.742961 161 175 198
-0.162727 0.144944 -1.014346 158 172 120
0.421338 -0.142066 1.222303 184 159 220
-1.130936 0.680430 -1.059781 115 196 118
0.254080 0.012743 0.496903 177 166 187
0.001649 0.735315 0.306583 165 198 179
-0.216942 -0.055140 1.127012 156 163 216
-0.215876 1.397226 -0.189753 156 228 157
0.139449 -0.492799 1.609588 171 143 237
-0.081729 -0.322294 0.137956 162 151 171
-0.221875 0.420070 -0.478021 155 184 144
0.371415 0.994445 0.316674 182 210 179
0.395656 0.809371 1.124599 183 201 215
-0.007922 0.028048 -1.699440 165 167 89
-0.013598 -0.553168 0.068275 165 141 168
0.158286 -0.078310 0.809888 172 162 201
-0.097515 -0.126923 -1.053601 161 160 118
-0.228294 0.548758 1.196123 155 190 219
-1.526834 -0.434617 -0.401191 97 146 147
-0.256151 0.456799 -0.050062 154 186 163
-0.027433 -0.199141 -0.687293 164 156 135
0.995433 -0.416019 -0.258677 210 147 154
0.741003 0.610138 -1.177736 198 192 113
0.270579 -0.156920 1.647769 177 158 239
0.020292 -0.124875 -0.579993 166 160 139
-0.287768 0.589587 0.334197 152 192 180
-0.008429 -0.112495 -1.151946 165 160 114
-0.634461 -0.082147 -1.245372 137 162 110
0.264978 1.340788 -1.076302 177 225 117
0.368688 -0.338954 -0.297714 182 150 152
-0.657169 0.129024 -0.363385 136 171 149
0.277670 -0.924896 0.321977 178 124 180
0.965389 -0.146687 1.000963 208 159 210
-1.432264 -1.009782 0.041134 101 120 167
-0.175564 0.122748 -0.447160 157 171 145
0.416110 -0.625161 -0.158893 184 137 158
-0.148406 -0.059778 -1.011661 159 163 120
-0.088558 0.216481 -1.359048 161 175 105
-1.333732 -0.639917 -1.023983 106 137 120
-0.038748 -0.053951 0.514453 164 163 188
-0.125059 0.065368 0.871368 160 168 204
-0.083102 -0.322690 1.039501 162 151 212
-0.128001 -0.702710 1.168107 160 134 217
-0.729509 -0.907853 1.223770 133 125 220
-0.006059 -0.023941 0.587673 165 164 191
0.168665 0.611001 0.327348 173 193 180
0.105285 0.925385 -0.659530 170 207 136
-1.291855 -0.214883 -0.703581 108 156 134
-0.043285 -0.041510 -1.684307 163 163 90
-0.061564 -0.214471 -0.405076 163 156 147
0.251342 0.307511 -0.739088 176 179 132
-0.236363 -0.857462 -0.725049 155 127 133
-1.365751 0.406312 0.103116 104 183 170
1.495466 -0.477795 -0.545424 232 144 141
-0.166208 0.295730 -0.362189 158 178 149
-0.512649 0.552683 0.142039 142 190 172
-1.009687 0.644817 -0.362687 120 194 149
-0.078533 1.179603 -0.777925 162 218 131
0.100267 1.535027 0.481217 170 234 187
0.054276 -0.074845 0.590909 168 162 192
0.079885 -0.713947 -0.086014 169 133 161
-0.599225 -0.667058 -0.481738 139 135 144
-1.122090 0.615458 -0.596088 115 193 139
-0.245150 1.395658 0.872754 154 228 204
0.184410 0.430738 -0.340834 173 184 150
0.690630 0.328520 -0.074803 196 180 162
0.276513 -0.220184 1.118705 178 155 215
0.095657 0.577555 1.262529 170 191 222
-0.597119 0.045475 1.679216 139 167 240
0.024827 -0.410937 0.098112 166 147 170
-0.580614 0.060701 0.537721 139 168 189
-0.522899 0.002674 0.993549 142 165 210
0.649825 -0.363372 1.292845 194 149 223
-1.077086 1.162700 -0.395882 117 217 148
-0.306500 0.215855 0.345187 152 175 181
-0.030461 -0.602330 -0.625460 164 138 137
0.270433 1.040649 -0.100961 177 212 161
0.363549 1.104299 -0.544987 181 215 141
1.099539 -0.064277 -1.278497 214 162 108
0.198487 0.338942 0.038535 174 180 167
0.419112 -0.269869 -0.496058 184 153 143
0.438573 0.242179 1.007922 185 176 210
-0.747732 -0.806228 -0.754952 132 129 132
0.637944 1.053672 1.122245 194 212 215
-0.371287 -0.182889 0.361861 149 157 181
-0.280382 0.093099 0.648729 153 169 194
0.022322 -0.077086 0.954796 166 162 208
-0.762475 -1.080860 -0.472735 131 117 144
0.953805 0.061702 -1.515558 208 168 98
0.110352 0.175900 0.323454 170 173 180
0.112168 -0.205614 -0.733946 170 156 132
0.692154 0.757209 -0.169923 196 199 158
1.254053 0.402433 -0.750994 221 183 132
0.052607 0.305091 -1.683119 168 179 90
0.233266 0.113416 -0.437239 176 170 146
0.317628 -0.318636 0.585212 179 151 191
0.040894 0.654673 0.891312 167 194 205
0.397821 -0.486014 1.264438 183 144 222
0.261019 1.226571 -1.216446 177 220 111
0.305047 0.300649 0.250466 179 179 176
0.474368 0.029347 0.773963 186 167 200
0.250563 0.141368 0.929656 176 172 207
1.099981 -0.231468 -0.851930 214 155 127
0.994066 -1.411092 0.019692 210 102 166
-0.437704 -0.307199 -0.179764 146 152 157
-0.608757 0.112005 0.420318 138 170 184
-1.143632 -0.135880 0.098963 114 159 170
-0.819171 0.082549 1.199467 129 169 219
0.367285 -0.199563 1.605722 182 156 237
-0.176211 0.083009 0.523104 157 169 189
0.171494 0.743373 0.097956 173 198 170
-1.064593 0.082026 -0.405699 118 169 147
0.853528 0.961920 0.278351 203 208 178
-0.203436 0.408860 1.585703 156 183 236
-0.522544 0.154915 -0.269466 142 172 153
-0.226438 0.828586 0.365561 155 202 182
-0.280674 0.995590 -0.029035 153 210 164
-0.353618 0.145846 -1.273869 149 172 108
0.368460 0.306391 -1.664405 182 179 91
0.494496 0.005872 0.192902 187 166 174
0.180405 -0.123880 -0.727500 173 160 133
-0.090231 -0.124740 1.059786 161 160 213
0.988409 -0.061676 -0.962438 209 162 122
0.164500 -0.476615 -1.590721 173 144 94
0.016536 -0.027429 0.607119 166 164 192
0.323263 0.418449 -0.515814 180 184 142
-0.386067 0.026112 -0.941941 148 166 123
0.697401 0.715443 1.112624 196 197 215
0.241632 -0.145388 -1.601999 176 159 94
0.166897 0.102568 0.362676 173 170 181
-0.015346 -0.402524 0.772909 165 147 200
0.362943 -0.831059 -0.734452 181 128 132
-0.265470 1.278846 0.273145 153 222 177
-1.477750 -0.862251 -0.157335 99 127 158
-0.229073 -0.302513 0.331653 155 152 180
0.664328 0.332940 -0.047993 195 180 163
0.641998 -0.904355 -0.025125 194 125 164
0.072987 0.085473 -1.415198 169 169 102
0.254747 0.037724 -1.608150 177 167 93
-0.122631 -0.033552 0.536995 160 164 189
-0.066028 -0.115019 -0.743392 162 160 132
-0.723974 0.312071 0.762898 133 179 199
0.816416 -0.649415 -1.006857 202 136 120
0.139353 1.060487 -1.373697 171 213 104
-0.391559 -0.428258 -0.023234 148 146 164
-0.158314 0.617889 0.544014 158 193 190
-0.280462 0.314000 1.067178 153 179 213
-0.433808 0.418932 -1.241863 146 184 110
1.292452 0.972190 0.527338 223 209 189
-0.505656 0.135839 0.241691 143 171 176
0.646282 0.384383 0.310389 194 182 179
0.034739 0.032719 1.053462 167 167 212
-1.096423 -0.066126 0.962828 116 162 208
-0.547459 -1.529388 -0.200657 141 97 156
0.398824 -0.428020 0.060487 183 146 168
-0.052225 -0.338753 0.665828 163 150 195
-0.399030 -0.362520 -0.943434 147 149 123
0.665592 -0.270103 1.285424 195 153 223
0.389473 -0.629610 1.603527 183 137 237
-0.367926 -0.019430 -0.141037 149 164 159
0.666167 0.140167 0.107535 195 172 170
-0.616833 -0.444418 -0.819536 138 145 129
-0.519931 -0.184187 -1.277992 142 157 108
-1.080725 -1.010412 1.038715 117 120 212
0.323940 0.287223 0.119589 180 178 171
-0.700385 -0.174780 0.427039 134 157 184
-0.920317 0.052909 0.687516 124 168 196
0.867496 0.004492 1.152242 204 165 217
-1.092492 -0.406786 1.302663 116 147 223
-0.111101 0.010215 -0.463303 160 166 145
-0.056151 -0.307418 0.841702 163 152 203
-1.111528 0.211090 -0.258671 116 175 154
0.180918 -0.114190 -1.294210 173 160 107
-1.325032 0.348308 0.973567 106 181 209
0.305515 -0.154196 -0.290327 179 158 152
0.415068 -0.424848 -0.606879 184 146 138
0.014767 -0.047753 1.016432 166 163 211
1.336927 0.109295 -0.385349 225 170 148
0.028615 0.328286 -1.682132 167 180 90
-0.189946 -0.009086 0.416475 157 165 184
-0.025069 0.058872 0.745843 164 168 199
-0.259765 0.250795 -0.916255 154 176 124
1.227779 -0.606044 0.432618 220 138 185
-0.838996 -0.329755 1.566379 128 151 235
0.053320 -0.007383 0.473168 168 165 186
0.238774 -0.708019 0.062763 176 134 168
-0.046041 -0.979086 0.500525 163 122 188
-0.015515 0.085122 -1.359085 165 169 105
-1.068463 0.774605 1.167774 118 200 217
0.390915 -0.168698 0.187477 183 158 174
-0.218021 -0.221994 -0.705993 156 155 134
-0.155487 0.776735 -0.881189 158 200 126
-0.353271 -0.848249 0.944472 149 127 207
-0.325383 0.328029 1.649473 151 180 239
0.358607 0.221391 -0.000041 181 175 165
-0.679710 0.492014 -0.354738 135 187 149
-0.582471 0.148987 -0.872495 139 172 126
0.888439 0.357106 -1.168307 205 181 113
-0.083614 -0.326916 1.713194 162 151 242
0.437456 -0.156936 -0.073632 185 158 162
0.316944 0.317526 0.679774 179 179 196
-0.445057 0.758287 -0.714091 145 199 133
0.719673 1.285369 -0.208173 197 223 156
0.135942 1.597048 -0.687092 171 237 135
0.017372 0.238088 -0.375497 166 176 148
-0.330853 0.365399 0.533503 150 182 189
-0.016838 0.399192 0.865909 164 183 204
0.030725 1.333588 -0.367425 167 225 149
-0.122189 -0.053342 1.799111 160 163 246
-0.432554 -0.028933 0.150378 146 164 172
0.204451 -0.333583 -0.709213 174 150 134
0.925301 0.599330 0.429789 207 192 184
-0.358000 -1.157067 0.930178 149 114 207
-0.363199 0.687432 -1.531507 149 196 97
-0.328611 -0.451397 -0.130326 151 145 159
0.719670 0.258368 0.451385 197 177 185
0.673462 0.684852 -0.488981 195 196 143
0.817247 0.189027 -1.169276 202 174 113
-0.194359 0.132668 -1.595226 157 171 94
0.529576 -0.316386 -0.153365 189 151 158
-0.453063 0.242823 -0.580850 145 176 139
-0.563914 -0.135996 -1.031592 140 159 119
-0.021751 -0.756980 1.180452 164 131 218
-0.079703 0.183556 -1.753056 162 173 87
-0.318399 0.264030 -0.413069 151 177 147
0.008489 0.732261 0.481929 166 198 187
-0.071810 -0.195076 1.149594 162 157 217
0.353833 -0.821139 -1.139579 181 129 114
0.895037 -0.363348 1.279195 205 149 222
0.481290 -0.064146 -0.001903 187 162 165
0.147353 0.464141 -0.729221 172 186 133
0.747797 0.718721 0.282243 199 197 178
0.798379 -0.555748 -1.046134 201 140 119
0.132597 -1.562929 -0.488197 171 96 143
0.299249 -0.079075 -0.299236 179 162 152
0.162176 0.580342 0.583479 172 191 191
1.101977 -0.257215 -0.029066 214 154 164
-0.912410 -0.821737 0.669528 125 129 195
-1.417306 -0.853245 -0.471385 102 127 144
0.281171 0.149386 -0.431673 178 172 146
-0.550093 0.132275 -0.514705 141 171 142
0.499109 -0.562499 -0.703697 188 140 134
0.291536 0.514922 1.227361 178 188 220
1.112680 0.523548 -1.310197 215 189 107
-0.093384 -0.124928 0.598635 161 160 192
-0.705131 -0.521097 -0.189350 134 142 157
-0.233567 -0.551684 0.906268 155 141 206
0.018061 0.057059 1.443184 166 168 230
-1.022733 -0.681409 1.061279 120 135 213
-0.133520 -0.219123 0.414639 159 155 184
-0.420779 0.392926 -0.465075 146 183 144
-0.609783 -0.257496 0.835548 138 154 203
-0.794072 0.297731 1.071303 130 179 213
-0.202759 -0.443078 -1.544749 156 145 96
0.354755 -0.216277 -0.173578 181 156 158
0.760788 0.011800 -0.114681 199 166 160
-0.184452 -0.173620 1.198006 157 158 219
0.481399 0.785484 1.007979 187 200 210
0.552043 0.370130 1.515316 190 182 233
0.117318 0.104958 0.516550 170 170 188
0.259307 -0.057548 0.760702 177 163 199
0.314172 0.267372 0.885749 179 177 205
1.378420 -0.159982 -0.185842 227 158 157
-0.592356 -0.743996 1.493598 139 132 232
-0.123973 -0.478660 -0.079752 160 144 162
-0.313257 0.761847 0.328572 151 199 180
-0.256589 0.415418 -0.932343 154 184 124
-0.373760 -0.252247 -1.194313 149 154 112
-0.862056 -0.331315 1.324918 127 150 224
0.440678 -0.079500 -0.214077 185 162 156
0.024741 0.143152 -0.908774 166 172 125
-0.132003 -0.588123 0.958273 159 139 208
1.070332 0.674272 -0.457339 213 195 145
0.035648 0.017850 1.587940 167 166 236
-0.225176 -0.131018 0.545291 155 159 190
-0.462935 0.232804 0.468130 145 176 186
-0.754081 0.152860 0.850540 132 172 203
-0.827400 0.112358 -1.183110 128 170 112
-0.201165 -1.664701 -0.009355 156 91 165
0.105796 0.191751 -0.391755 170 174 148
-0.174779 -0.765608 -0.362775 157 131 149
0.056402 0.067194 1.073919 168 168 213
0.194671 1.249095 -0.079430 174 221 162
-0.075742 -1.458711 0.928589 162 100 207
0.328444 0.190328 -0.390980 180 174 148
-0.146799 -0.170461 -0.749238 159 158 132
-0.631893 0.588193 0.696670 137 191 196
1.132245 -0.749995 -0.354624 216 132 149
1.176212 -1.313147 -0.134920 218 107 159
-0.217858 0.207836 0.352614 156 175 181
0.346597 0.252861 -0.737252 181 177 132
0.037446 1.048740 0.270328 167 212 177
0.144844 -0.119728 1.473856 172 160 231
-1.037727 -1.180238 -0.476333 119 113 144
-0.339422 -0.364418 -0.128520 150 149 160
0.011744 0.162451 -0.767194 166 172 131
-0.056777 0.159596 1.229691 163 172 220
0.824269 -0.804220 -0.561846 202 129 140
-0.085279 1.585475 -0.687253 161 236 135
-0.190768 0.048935 -0.452792 157 167 145
-0.026531 -0.167301 0.883905 164 158 205
0.674923 -0.236453 0.738649 195 155 198
-0.176671 1.386322 0.084157 157 227 169
0.922288 0.282713 1.423613 206 178 229
-0.357230 0.254007 0.241830 149 177 176
-0.124350 0.365061 0.521027 160 182 189
0.900753 -0.636288 -0.281467 205 137 153
-1.273681 0.229388 0.521187 108 175 189
0.142669 -0.394638 -1.786788 172 148 86
0.413659 -0.254386 -0.164546 184 154 158
0.264942 0.347118 0.696314 177 181 196
-0.017640 0.071684 0.980251 164 168 209
1.008978 0.607962 0.910965 210 192 206
-1.665045 -0.566668 -0.100202 91 140 161
0.049408 -0.300679 -0.317396 167 152 151
-0.707149 -0.201567 0.283431 134 156 178
-0.115198 0.666834 -0.898146 160 195 125
-1.154099 -0.231445 -0.825499 114 155 128
-1.724753 0.465410 0.199361 88 186 174
0.313074 0.315700 0.231213 179 179 176
-0.057000 0.780975 -0.032331 163 200 164
-0.839430 -0.402157 0.460201 128 147 186
-1.375155 0.084399 -0.397540 104 169 148
-0.459756 0.718198 1.429758 145 197 229
0.019540 0.035169 -0.474522 166 167 144
0.704729 0.320982 0.277585 197 180 178
0.096527 0.479420 -1.030962 170 187 119
0.451758 -0.925719 0.923272 185 124 206
-1.726394 0.140628 -0.001880 88 172 165
0.312240 0.259539 0.329449 179 177 180
-0.121018 0.574014 0.598559 160 191 192
-0.058245 0.026619 -1.001625 163 166 121
1.106990 -0.440590 -0.658078 215 146 136
-1.461669 -0.246878 0.695768 100 154 196
-0.212305 0.426318 0.231898 156 184 176
0.486722 0.577617 -0.036620 187 191 164
-0.167379 0.585481 -0.941759 158 191 123
0.042474 0.030821 -1.331073 167 167 106
-1.109753 -0.859963 1.246609 116 127 221
-0.036200 0.280607 0.515590 164 178 188
-0.353671 0.087310 -0.726769 149 169 133
0.555466 0.161567 1.043712 190 172 212
0.269406 -0.037703 -1.382274 177 164 104
0.166044 -0.413844 -1.687787 173 147 90
0.106599 0.569195 0.102622 170 191 170
-0.153470 -0.684803 -0.403291 158 135 147
0.713129 0.268796 0.785378 197 177 200
0.031639 -0.694554 -1.173374 167 134 113
-1.215979 -0.193861 1.215600 111 157 219
0.104769 -0.291145 0.461511 170 152 186
-0.097023 0.254770 0.670586 161 177 195
-0.028702 -1.081590 0.316558 164 117 179
-1.275024 0.409827 -0.695565 108 184 134
0.262992 -1.188116 -1.313805 177 112 107
0.062123 0.395396 -0.379916 168 183 148
0.402923 -0.556297 0.263883 183 140 177
-0.840516 -0.256852 -0.725522 128 154 133
0.053730 -0.057976 1.369141 168 163 226
0.656851 0.125430 1.464981 195 171 231
0.067557 -0.440510 -0.086831 168 146 161
0.131960 -0.847704 -0.098205 171 127 161
-0.001164 -0.641323 -0.826085 165 137 128
0.288140 0.498765 -1.312003 178 188 107
0.012159 -0.039536 1.690670 166 163 241
0.069754 -0.025382 -0.524065 168 164 142
0.374057 0.142374 -0.672909 182 172 135
-1.066158 0.222961 -0.167797 118 175 158
-0.022798 -0.113513 -1.458220 164 160 100
-0.026087 -0.034616 -1.790079 164 164 85
-0.192600 0.249426 -0.366070 157 176 149
0.519916 -0.331225 -0.390815 188 150 148
-0.597226 0.499785 -0.793304 139 188 130
0.173267 0.229994 -1.287699 173 176 108
-0.111849 -0.560150 1.644757 160 140 239
0.127497 -0.085384 -0.447034 171 161 145
0.372017 -0.328752 -0.710557 182 151 134
-0.285735 -0.043039 -1.012871 152 163 120
-0.322827 0.502890 1.256731 151 188 221
-0.899826 -0.352073 -1.333553 125 150 106
0.595046 0.016585 -0.147233 192 166 159
-0.660279 0.204184 -0.118477 136 174 160
-0.518700 0.923969 -0.090914 142 206 161
0.154203 -0.064415 -1.412745 172 162 102
-0.614625 -0.356356 1.561183 138 149 235
-0.035969 0.381914 0.356038 164 182 181
0.008486 -0.010910 0.704087 166 165 197
0.167588 0.313287 1.017939 173 179 211
-0.823624 0.711482 -0.835335 128 197 128
-0.274429 -1.400288 1.025253 153 103 211
0.105628 -0.333732 -0.201763 170 150 156
-0.353240 -0.337788 0.612253 149 150 193
0.256753 0.114100 -0.962071 177 170 122
-0.327813 0.409676 1.360979 151 184 226
1.590703 0.423944 0.037051 236 184 167
-0.227662 -0.101188 0.528534 155 161 189
-0.288965 0.154374 -0.735101 152 172 132
0.423179 -0.444727 -0.896094 184 145 125
-0.166489 -0.270163 -1.369944 158 153 104
0.664865 1.236954 -1.015687 195 220 120
-0.196999 0.350034 0.359619 156 181 181
0.038374 0.293107 0.846507 167 178 203
0.056530 0.034942 1.187524 168 167 218
-0.168592 -0.050643 1.494341 158 163 232
0.388200 1.564568 0.513645 183 235 188
-0.016196 -0.156378 0.472916 165 158 186
0.046756 0.082319 0.782112 167 169 200
-0.064107 -0.802085 0.725403 162 129 198
-0.806590 0.073151 1.199867 129 169 219
-1.143740 -1.040017 -0.678915 114 119 135
-0.198600 -0.477336 -0.166062 156 144 158
-0.125550 0.509790 0.719680 160 188 197
-0.246002 -0.409589 0.935496 154 147 207
-1.054582 0.180905 0.958286 118 173 208
-0.485855 -1.050419 1.355474 144 118 226
0.353302 0.202317 -0.434381 181 174 146
0.037163 -0.385037 0.708319 167 148 197
-0.237216 -0.960244 0.494990 155 122 187
0.020838 1.080221 -0.708727 166 213 134
0.236673 -0.645784 -1.523070 176 136 97
0.200356 -0.282791 0.293730 174 153 178
-0.170222 -0.270194 0.827639 158 153 202
0.629205 -0.233555 0.832052 193 155 202
0.795234 0.664381 -0.866764 201 195 127
1.531978 -0.695763 0.362354 234 134 181
0.206478 0.303226 0.368326 174 179 182
0.039327 0.079649 -0.871375 167 169 126
-0.839556 0.452501 0.646819 128 185 194
0.903195 0.974835 0.408455 206 209 183
-0.291561 -0.784609 -1.404723 152 130 103
-0.336746 0.343759 0.246520 150 181 176
0.414155 -0.116598 -0.757330 184 160 131
-0.511060 -0.518930 -0.735085 142 142 132
0.185291 0.073556 1.486118 174 169 232
-1.288165 -0.898042 -0.485674 108 125 144
-0.017805 -0.161540 0.441034 164 158 185
0.027639 -0.008776 0.912063 166 165 206
-0.070009 0.054232 1.049120 162 168 212
0.041066 -1.367821 -0.488060 167 104 143
-1.271877 1.125065 0.098934 108 215 170
-0.273456 -0.214440 -0.352786 153 156 150
-0.098765 -0.136919 0.674927 161 159 195
0.459471 -0.355202 -0.839644 186 149 128
-0.711345 -1.264783 0.294620 134 109 178
1.521050 0.428121 -0.788800 233 184 130
0.511685 -0.094194 -0.049433 188 161 163
0.093478 -0.540363 0.668463 169 141 195
0.618609 -0.324952 -0.926342 193 151 124
-0.646300 0.937179 0.728131 136 207 198
-1.274411 -0.228517 -0.959026 108 155 122
0.441807 0.038258 0.029582 185 167 167
0.072470 0.668441 -0.268674 168 195 153
0.679771 -0.169365 -0.768956 196 158 131
-0.837753 0.916728 0.945200 128 206 207
-0.627190 1.278101 0.927771 137 222 207
-0.220018 0.513924 0.160352 155 188 172
-0.057790 0.067102 0.742320 163 168 198
1.131417 0.084829 -0.077796 216 169 162
0.200007 -0.135526 -1.391361 174 159 103
-0.226198 -0.753047 -1.472113 155 132 100
0.363686 0.069164 -0.339910 181 168 150
-0.399504 0.452860 -0.493847 147 185 143
-0.146820 0.616559 -0.965779 159 193 122
1.118090 -0.778305 -0.604747 215 131 138
-1.356443 -0.018157 -1.149923 105 164 114
0.275186 -0.385945 0.267603 178 148 177
0.081322 0.205194 0.757870 169 174 199
-0.066353 -0.218094 -1.135818 162 156 115
-0.610492 -0.641254 -0.979648 138 137 122
-1.143796 -0.926871 -0.763681 114 124 131
0.113952 0.399844 0.086940 170 183 169
-0.278704 -0.347952 -0.753855 153 150 132
0.394420 -0.863824 -0.645496 183 127 136
0.678952 1.139867 -0.200393 196 216 156
0.277947 1.098212 1.357447 178 214 226
-0.210805 -0.310800 0.351513 156 151 181
-0.507351 0.582045 0.021523 143 191 166
0.094627 0.694926 0.838554 169 196 203
0.967754 0.296015 -1.035577 208 178 119
-1.225368 0.374562 -0.908710 111 182 125
-0.329861 -0.320104 0.285451 151 151 178
0.047035 -0.238312 0.696639 167 155 196
-0.316339 -0.937750 -0.428650 151 123 146
-1.266298 -0.304928 0.493586 109 152 187
0.818661 -1.018914 0.967380 202 120 208
-0.006550 0.256089 0.268974 165 177 177
-0.016978 0.068830 -0.700148 164 168 134
-0.852053 -0.100068 -0.665088 127 161 136
0.479409 1.080881 0.514109 187 213 188
0.429727 -1.673672 -0.102333 184 91 161
-0.143094 -0.421259 0.088844 159 146 169
-0.721398 -0.277382 0.196988 133 153 174
0.286733 -0.417557 1.033878 178 147 211
-0.968271 -0.577669 0.845240 122 139 203
-0.497899 -0.639197 -1.421891 143 137 102
-0.094635 -0.347066 -0.210559 161 150 156
-0.028238 0.872913 0.173028 164 204 173
0.087476 -0.177951 -1.052996 169 157 118
0.081979 0.954287 -1.073474 169 208 117
0.160228 0.186147 -1.742504 172 174 87
-0.145230 -0.156832 0.335226 159 158 180
-0.067582 0.335075 0.661191 162 180 195
-0.899165 -0.186232 0.523610 125 157 189
0.302226 0.066626 1.306680 179 168 224
1.195120 -1.094685 0.265162 219 116 177
0.183731 -0.405427 0.328351 173 147 180
0.359608 0.351314 -0.711393 181 181 134
-0.600064 0.028088 0.818813 138 167 202
0.390238 0.739977 -1.028576 183 198 119
-1.547704 -0.398954 0.598183 96 147 192
-0.259888 0.398862 0.050369 154 183 167
-0.021533 0.174327 0.738961 164 173 198
0.010825 0.034212 -1.078357 166 167 117
-1.246546 -0.203604 -0.788591 110 156 130
0.361176 -1.725425 -0.355753 181 88 149
0.479901 0.056851 0.271254 187 168 177
-0.490614 0.719073 0.183268 143 197 173
-0.724540 0.780420 -0.259212 133 200 154
-0.959619 -0.463919 0.963030 122 145 208
-0.182004 -1.314698 0.993013 157 107 210
-0.248112 0.040124 -0.350595 154 167 150
0.128082 0.601560 -0.552746 171 192 141
-0.462600 0.796134 -0.411946 145 201 147
0.941549 0.636612 0.800450 207 194 201
1.540701 0.813413 -0.087125 234 202 161
0.118358 0.010654 0.403598 171 166 183
-0.179790 -0.405114 0.559079 157 147 190
-0.190633 -0.159109 1.057630 157 158 212
0.258512 -0.229780 1.317115 177 155 224
0.352249 -0.224831 -1.738881 181 155 88
-0.040859 0.183545 0.435966 163 173 185
-0.710972 -0.123189 -0.576316 134 160 140
0.968587 0.650868 0.413416 208 194 184
-0.577568 -0.962464 0.676071 139 122 195
0.037323 0.017164 -1.683485 167 166 90
0.220054 -0.162714 -0.374696 175 158 149
0.333880 0.185137 0.794043 180 174 201
0.554875 -0.163790 -1.010635 190 158 120
1.000666 0.952838 -0.616727 210 208 138
1.713342 0.486684 0.329744 242 187 180
0.243835 0.122782 0.400656 176 171 183
-0.257275 0.346427 0.714845 154 181 197
-0.367316 0.944120 -0.400294 149 207 147
0.124204 -0.338726 -1.294712 171 150 107
0.022924 -0.723914 1.501941 166 133 232
0.094192 -0.044424 -0.529598 169 163 142
-0.154864 0.347145 0.585152 158 181 191
0.668515 -0.628585 -0.745988 195 137 132
0.954509 -0.606106 -0.974748 208 138 122
0.107125 0.400989 -1.555278 170 183 96
0.077641 0.163426 -0.498228 169 173 143
-0.249549 -0.730247 0.361381 154 133 181
-0.833444 0.319681 0.660108 128 180 195
0.076472 0.338716 1.287108 169 180 223
-0.223306 -0.687179 -1.637372 155 135 92
-0.087980 0.374371 0.221624 161 182 175
-0.626682 0.425816 0.237546 137 184 176
0.044904 -0.258192 1.017106 167 154 211
-0.842720 0.095959 -1.143535 128 170 114
-1.355376 -0.945987 0.543718 105 123 190
0.307907 -0.456675 0.132755 179 145 171
0.054033 0.181467 0.781384 168 173 200
-0.606478 0.706928 0.442027 138 197 185
-1.127106 -0.773261 -0.104838 115 131 161
-0.713990 0.100784 -1.665447 133 170 91
0.112718 0.074411 0.541123 170 169 189
-0.056531 0.052403 -0.692425 163 168 134
0.122847 -0.000195 1.159575 171 165 217
0.132894 -0.689916 1.155680 171 134 217
-0.016788 0.485592 -1.676610 165 187 90
-0.003447 -0.071147 -0.588105 165 162 139
0.517431 0.388087 -0.623241 188 183 137
-0.187146 0.583037 -0.798889 157 191 130
-0.987858 -0.005504 -1.043463 121 165 119
0.795272 -0.862069 1.326448 201 127 224
-0.331467 0.175173 0.170858 150 173 173
0.692575 0.194498 -0.244820 196 174 154
0.736759 0.688996 0.469600 198 196 186
0.126672 -0.051261 -1.388967 171 163 103
0.565875 0.807478 1.260086 191 201 221
0.012584 -0.045286 0.494113 166 163 187
0.065533 -0.017429 0.693974 168 164 196
0.067974 -0.541829 -0.917921 168 141 124
1.242701 0.148105 0.490767 221 172 187
-0.818424 1.003576 -1.180549 129 210 113
0.002041 0.065056 -0.495044 165 168 143
-0.411685 0.004196 0.703143 147 165 197
0.805743 -0.271096 -0.787697 201 153 130
0.788906 0.323011 -1.130452 200 180 115
1.616993 0.067996 0.230926 237 168 176
0.029033 0.031356 -0.486166 167 167 144
-0.489849 -0.285757 0.515223 143 152 188
-0.311302 1.128895 -0.193466 151 216 157
-1.133626 -0.184336 0.826386 115 157 202
0.117256 -0.220493 1.687217 170 155 241
0.007322 0.424340 -0.233234 166 184 155
-0.170498 0.065976 0.787692 158 168 200
0.157685 -0.329946 0.958255 172 151 208
-0.716106 1.134404 -0.286946 133 216 152
-0.431150 1.513267 0.438479 146 233 185
-0.515455 -0.197612 0.012951 142 156 166
0.473212 0.140061 0.691183 186 172 196
-1.010374 0.392267 -0.340611 120 183 150
-0.528979 -1.356204 0.215466 142 105 175
-0.889372 1.431426 0.344084 126 229 181
0.354840 0.102701 -0.406306 181 170 147
0.479822 0.588302 -0.227047 187 192 155
-0.441887 1.058679 -0.084786 146 212 161
-0.077122 0.387026 1.483337 162 183 231
0.987941 0.739340 -1.217517 209 198 111
0.097390 -0.235138 0.486502 170 155 187
0.622960 0.069984 0.400489 193 168 183
0.023922 -0.660137 -0.895189 166 136 125
-1.028369 1.013280 0.125833 119 210 171
-1.203525 0.823977 0.763341 112 202 199
-0.094429 -0.286768 0.391724 161 152 183
0.166551 0.141608 0.738730 173 172 198
0.446118 0.979503 0.329422 185 209 180
0.217083 -1.359685 -0.149407 175 105 159
-0.623335 1.072899 1.064127 137 213 213
-0.093906 -0.019948 -0.357154 161 164 149
-0.215014 0.367488 0.522593 156 182 189
-0.793223 0.035518 -0.695748 130 167 134
0.376628 0.161488 -1.331225 182 172 106
-1.339609 -1.122568 0.303850 105 115 179
-0.261694 0.358847 0.397925 154 181 183
0.064949 -0.129368 0.877558 168 159 204
-0.295518 0.126574 1.195363 152 171 219
1.239207 0.184124 -0.361407 221 173 149
-1.586718 0.588545 0.323452 94 192 180
0.072719 0.266485 -0.298293 168 177 152
0.133826 0.752557 0.258051 171 199 177
0.514724 0.853583 -0.578408 188 203 139
0.335992 -0.315084 1.353270 180 151 226
-0.076649 -0.579797 -1.571182 162 139 95
-0.005175 0.003162 -0.481955 165 165 144
0.048637 -0.048110 0.795131 167 163 201
0.192175 -0.181817 1.019053 174 157 211
0.001368 0.157793 1.418122 165 172 229
0.524399 -0.573714 -1.436724 189 140 101
0.356336 -0.035834 -0.274025 181 164 153
0.662714 0.472394 0.023527 195 186 166
0.835034 -0.431540 -0.483943 203 146 144
0.057210 -0.038029 1.391134 168 164 227
-1.551238 -0.194792 0.081718 96 157 169
-0.015586 -0.002428 -0.595348 165 165 139
0.702883 -0.021018 0.412564 197 164 184
1.084883 0.324246 -0.312303 214 180 151
-1.177900 0.257134 -0.776774 113 177 131
0.308976 -1.367802 0.781695 179 104 200
-0.380905 -0.115602 0.367583 148 160 182
-0.472722 0.035009 -0.772231 144 167 131
-0.455021 0.900021 0.480575 145 205 187
-0.512440 0.503050 1.278514 142 188 222
0.143064 -0.160988 -1.601822 172 158 94
0.122491 -0.149393 0.543188 171 159 189
-0.040362 0.568847 0.350204 163 191 181
-0.668046 0.343805 0.872624 135 181 204
0.087573 1.170878 0.690174 169 218 196
0.419374 0.793024 -1.359136 184 201 105
-0.206855 0.195543 0.469216 156 174 186
0.063446 0.179278 -0.768040 168 173 131
0.066095 -1.085708 -0.256393 168 117 154
0.663044 -0.586543 -1.108506 195 139 116
1.179036 -0.373542 1.202220 218 149 219
-0.376838 -0.329555 -0.085465 148 151 161
-0.389843 0.580313 -0.658657 148 191 136
-0.545194 -0.887022 -0.221766 141 126 155
-0.201430 0.937102 0.956824 156 207 208
-0.286376 -0.796565 -1.403441 152 130 103
-0.527879 -0.023378 -0.175654 142 164 157
-0.222091 -0.719916 -0.061193 155 133 163
-0.030021 -0.211772 1.140000 164 156 216
-0.747558 -0.631920 0.874547 132 137 204
-0.061100 0.061049 -1.591121 163 168 94
-0.036116 -0.369066 -0.051032 164 149 163
-0.042553 0.042953 -0.790747 163 167 130
-0.134318 0.981516 -0.309052 159 209 151
0.129529 0.215505 1.345486 171 175 225
-1.103352 0.379052 1.271384 116 182 222
0.160205 0.209330 0.544941 172 175 190
-0.572952 0.205019 0.323212 140 174 180
0.231220 -0.891266 -0.459915 176 125 145
0.203847 0.531450 -1.203404 174 189 112
0.547234 -0.374043 -1.475891 190 149 99
-0.128038 0.185945 0.545103 160 174 190
-0.434759 -0.509411 0.258463 146 143 177
-0.604958 -0.547022 -0.696582 138 141 134
0.546032 -1.176719 -0.549518 190 113 141
0.391537 1.192021 1.067978 183 218 213
0.381916 -0.175454 -0.239653 182 157 155
0.304080 -0.475652 -0.626267 179 144 137
-0.794184 -0.043227 0.622246 130 163 193
0.080358 0.005313 -1.434830 169 165 101
0.029391 -1.100665 -1.245658 167 116 110
0.112843 -0.412986 -0.448597 170 147 145
0.342901 -0.443909 0.675653 181 145 195
0.560632 0.714264 -0.426393 190 197 146
0.992746 -0.231361 -1.058311 210 155 118
0.986163 1.065005 -1.011609 209 213 120
0.136732 -0.355126 -0.277434 171 149 153
-0.481838 -0.315503 0.442458 144 151 185
0.083652 -0.133837 1.031368 169 159 211
-0.150940 -0.034837 1.291356 159 164 223
0.014474 0.000334 -1.809426 166 165 85
-0.187449 -0.123976 0.372871 157 160 182
-0.188122 -0.093828 0.805478 157 161 201
0.832330 0.255407 0.670577 202 177 195
-0.538676 -0.999416 0.969030 141 121 208
-0.410692 -0.720305 -1.411604 147 133 102
0.124724 -0.221521 -0.335754 171 155 150
0.195983 0.266671 0.612919 174 177 193
0.205693 0.150055 -0.999576 174 172 121
0.609263 0.602778 1.238080 192 192 220
-0.075519 0.034439 1.803975 162 167 246
-0.114204 0.069952 -0.403348 160 168 147
-0.695607 -0.022696 0.463495 134 164 186
0.218761 -0.515567 1.078276 175 142 213
-0.707056 -1.327100 0.179380 134 106 173
1.609473 0.740466 0.107318 237 198 170
0.045496 0.176157 0.353195 167 173 181
-0.007436 -0.083562 0.685683 165 162 196
0.157407 -0.209079 -0.955545 172 156 123
1.280298 0.614917 0.040613 222 193 167
1.269343 0.376302 1.138299 222 182 216
0.520385 0.106114 -0.129019 188 170 159
0.270786 0.542282 -0.628420 177 189 137
-0.350344 0.972355 -0.048290 150 209 163
-0.982137 -0.933005 -0.133791 121 124 159
0.919368 1.141585 -0.730814 206 216 133
