ply
format ascii 1.0
element vertex 1182
property float x
property float y
property float z
property uchar red
property uchar green
property uchar blue
end_header
0.049693 0.050253 -0.774806 167 167 131
0.239177 -0.950847 0.274572 176 123 178
-0.553459 1.227718 -0.602095 141 220 138
0.705969 -1.000602 1.080621 197 121 213
0.073341 -0.121020 0.559050 169 160 190
0.480219 0.087255 0.616472 187 169 193
0.757769 0.539405 -0.182622 199 189 157
-0.339572 -0.296436 1.444897 150 152 230
1.742615 0.531617 0.074917 243 189 169
0.015712 0.020040 -0.545484 166 166 141
-0.120721 -0.043854 0.793080 160 163 201
0.176391 0.261764 1.130080 173 177 216
0.922027 0.546306 -0.894630 206 190 125
1.443533 0.911021 -0.447030 230 206 145
0.138707 0.033848 -0.498069 171 167 143
0.552287 -0.210908 0.608413 190 156 192
0.067732 0.006255 -1.076012 168 166 117
-1.017606 -0.367520 0.765250 120 149 199
-0.406257 -0.262226 1.639614 147 154 238
0.020259 -0.028537 0.433308 166 164 185
-0.381646 0.331198 -0.639736 148 180 137
-0.319707 -0.340082 0.986537 151 150 209
-0.534564 1.287824 -0.208231 141 223 156
1.320980 -0.677472 0.680726 224 135 196
0.458589 -0.237086 0.005871 186 155 166
-0.627531 -0.296603 -0.359299 137 152 149
-0.114608 1.026658 0.193329 160 211 174
0.529022 0.722315 1.135307 189 197 216
0.106174 0.194867 -1.698836 170 174 89
0.118646 -0.093894 -0.550379 171 161 141
0.677893 0.220429 0.292210 196 175 178
0.762825 0.642007 -0.482858 199 194 144
-0.099194 0.037508 1.436514 161 167 229
0.464911 0.513948 -1.438904 186 188 101
-0.069865 -0.337433 0.428903 162 150 184
-0.275155 0.264027 0.742066 153 177 198
0.954164 0.187814 -0.640108 208 174 137
-0.004069 -1.065049 0.794585 165 118 201
-0.752677 -0.631089 -1.370903 132 137 104
0.327282 -0.151084 -0.184013 180 159 157
0.140596 -0.179364 0.763010 172 157 199
-0.889858 -0.363863 0.820107 126 149 202
-0.433260 0.579012 -1.114601 146 191 116
1.473077 -0.691580 0.458784 231 134 186
-0.009992 -0.484983 -0.036407 165 144 164
-0.334146 -0.650119 -0.090514 150 136 161
-0.148848 0.492537 -0.919553 159 187 124
-0.347674 0.887058 -1.104647 150 205 116
1.561453 -0.782554 -0.385756 235 130 148
-0.483700 0.074885 -0.163312 144 169 158
-0.176349 0.183149 -0.672003 157 173 135
0.337689 -0.060066 -1.080279 180 163 117
0.233133 0.889240 -0.923020 176 205 124
-1.398370 0.849654 0.074363 103 203 169
-0.150377 -0.483759 0.148201 159 144 172
0.304036 0.841751 0.074245 179 203 169
-0.296440 0.507475 -0.853832 152 188 127
0.037153 -0.014907 -1.317980 167 165 106
0.872896 -0.357806 -1.244933 204 149 110
-0.043748 0.015711 -0.448623 163 166 145
0.155374 0.493484 0.489729 172 187 187
0.397625 0.713101 0.683164 183 197 196
0.200432 1.244619 -0.729973 174 221 133
-1.074110 0.214446 -1.212054 117 175 111
-0.025622 -0.009202 -0.565896 164 165 140
-0.030127 -0.859017 0.060935 164 127 168
0.058744 -0.855648 -0.733704 168 127 133
0.021775 0.227988 -1.342304 166 175 105
-1.627602 -0.416565 -0.005614 93 147 165
-0.428880 0.126916 0.016703 146 171 166
0.241118 0.097189 0.691611 176 170 196
0.343697 0.956364 -0.426077 181 208 146
-0.420432 0.850083 -0.973571 146 203 122
-0.165442 -0.968666 -1.313040 158 122 107
0.166344 0.004136 -0.428315 173 165 146
-0.161975 -0.130142 -0.691036 158 159 134
-0.884577 -0.166152 0.460429 126 158 186
0.201532 0.378642 1.308887 174 182 224
0.800179 0.405728 -1.444201 201 183 101
0.160184 -0.476149 0.368072 172 144 182
0.083656 -0.782693 0.094295 169 130 169
0.745882 -0.666135 -0.629123 199 136 137
-0.083076 1.222495 0.514898 162 220 188
-0.519789 -0.143709 1.502816 142 159 232
-0.207279 0.395034 -0.036286 156 183 164
0.636714 0.526544 0.263294 194 189 177
-0.009210 0.043912 1.137085 165 167 216
-0.057269 0.078363 -1.412220 163 169 102
0.003766 0.022276 1.787279 165 166 245
0.064352 -0.246854 -0.338845 168 154 150
-0.257253 -0.281947 0.755384 154 153 199
-0.504735 -0.916083 0.096825 143 124 170
-0.886381 -0.543327 0.935680 126 141 207
0.056155 -0.362434 1.648870 168 149 239
0.081220 -0.134122 -0.508346 169 159 143
0.063735 -0.721853 0.353549 168 133 181
-1.003039 0.013371 0.456364 120 166 186
0.005552 0.057595 -1.465476 165 168 100
-1.421043 -0.886879 -0.089524 102 126 161
-0.339278 -0.112986 0.212094 150 160 175
0.785592 0.035065 0.069833 200 167 168
0.519736 1.036129 -0.208645 188 211 156
-0.616511 1.123357 0.400896 138 215 183
0.338159 1.620091 -0.503784 180 238 143
0.031183 -0.148030 -0.477781 167 159 144
0.156380 -0.163597 0.777375 172 158 200
1.026088 0.196544 -0.380359 211 174 148
-0.341527 0.930347 0.936645 150 207 207
0.243451 -1.126850 -1.299941 176 115 107
0.450967 -0.193195 0.214119 185 157 175
0.039106 -0.074325 0.761494 167 162 199
0.495047 0.872281 -0.163883 187 204 158
-1.071189 0.494697 -0.698136 117 187 134
-0.068928 1.427860 1.008783 162 229 210
0.560532 -0.073021 0.184744 190 162 173
-0.274550 -0.277566 -0.600262 153 153 138
0.770713 0.684327 0.271877 200 196 177
-0.097480 0.642637 1.301597 161 194 223
-1.414112 -0.814128 0.212468 102 129 175
-0.267163 -0.183113 -0.435375 153 157 146
0.020956 -0.053540 0.818355 166 163 202
0.292642 -0.389114 0.852664 178 148 203
-0.781935 0.868925 0.695536 130 204 196
0.153825 0.345596 -1.724756 172 181 88
-0.129667 -0.388055 -0.163343 159 148 158
0.259801 -0.771640 0.312104 177 131 179
-0.778459 -0.308494 0.628736 131 151 193
-0.908423 0.299209 -1.087170 125 179 117
1.488317 0.661562 0.089898 232 195 169
0.325738 0.134685 0.146742 180 171 172
0.324406 -0.224056 -0.755312 180 155 132
0.570132 0.522122 -0.831531 191 189 128
1.144557 -0.789160 0.704980 216 130 197
0.588576 -1.477255 -0.162797 192 99 158
0.341864 0.443727 0.162042 181 185 172
0.227107 -0.413488 -0.576493 175 147 140
-0.213414 0.586205 0.892009 156 191 205
-1.283108 -0.444086 0.281432 108 145 178
1.262861 -0.404910 0.997944 222 147 210
-0.195931 0.370657 -0.176224 157 182 157
0.259194 0.340305 0.785985 177 180 200
-0.324051 0.213004 1.012218 151 175 210
0.368793 -1.241615 -0.610968 182 110 138
-0.389079 0.331244 -1.557548 148 180 96
0.302080 -0.284698 0.130125 179 153 171
0.233333 -0.054696 -0.748015 176 163 132
-0.546157 -0.398239 -0.787727 141 147 130
-0.845172 0.530081 0.960873 128 189 208
-0.307363 -0.324561 -1.719049 152 151 89
-0.184208 0.266477 -0.381108 157 177 148
-0.572182 -0.386161 0.207448 140 148 175
0.502687 1.076367 0.117230 188 213 170
0.486392 1.217384 0.190438 187 220 174
-0.216278 -0.238448 -1.684829 156 155 90
-0.278042 0.355100 0.187347 153 181 174
-0.311461 0.037939 -0.782324 151 167 130
-0.213713 0.302608 -1.001938 156 179 121
0.397510 0.888656 -1.118181 183 205 115
0.332183 1.552796 -0.395040 180 235 148
0.069037 -0.006490 0.483803 168 165 187
0.642483 0.318320 -0.467331 194 179 144
0.119687 -0.824530 -0.591666 171 128 139
0.068613 -0.005308 1.380374 168 165 227
1.394838 0.318372 0.716245 227 179 197
0.384016 -0.210399 -0.094101 182 156 161
0.138111 -0.720221 0.322212 171 133 180
0.775784 -0.401897 0.714831 200 147 197
0.665762 0.590564 -1.022556 195 192 120
1.389224 0.411365 -0.950523 227 184 123
-0.015066 0.542730 -0.036441 165 189 164
-0.363970 0.450245 -0.598209 149 185 139
-0.484032 -0.128971 1.052931 144 159 212
-0.302608 0.278894 -1.346203 152 178 105
0.720269 -1.400840 0.217218 197 103 175
-0.036166 0.287904 -0.449913 164 178 145
0.048359 -0.010186 0.892618 167 165 205
0.325260 0.684380 0.887611 180 196 205
-1.099970 -0.596924 0.406475 116 139 183
0.207994 -1.043604 1.364321 175 119 226
-0.306881 -0.062220 0.254341 152 162 177
-0.332810 0.706920 0.386995 150 197 183
-0.788728 -0.507222 -0.537210 130 143 141
0.023169 -0.296447 -1.295499 166 152 107
-1.004065 -0.911991 0.885239 120 125 205
-0.401079 0.179118 0.383877 147 173 182
-0.686442 0.224336 -0.406026 135 175 147
-0.811799 -0.724940 -0.349227 129 133 150
-0.153521 -1.230412 0.510493 158 110 188
-0.317905 0.980517 -1.244954 151 209 110
0.395472 0.234664 0.208904 183 176 175
-0.182664 -0.724247 0.049944 157 133 167
0.173472 -0.743370 -0.687322 173 132 135
0.191906 0.463971 -1.195557 174 186 112
-0.153137 0.018134 -1.714120 158 166 89
-0.050600 0.023174 -0.455254 163 166 145
-0.416698 -0.136506 -0.647920 147 159 136
0.414979 -0.855850 0.669106 184 127 195
0.741173 0.390590 -1.032847 198 183 119
1.231358 -0.570395 -0.919453 220 140 124
0.056545 0.022691 -0.443444 168 166 145
0.295042 0.711503 0.173770 178 197 173
0.068293 -0.177528 -1.063222 168 157 118
0.346643 -0.664819 -1.199918 181 136 112
1.692397 -0.478549 0.054187 241 144 168
-0.008006 0.049038 0.501734 165 167 188
-0.329901 -0.372473 -0.542138 151 149 141
0.171509 -1.128276 0.161786 173 115 172
-1.209808 -0.133528 0.508377 111 159 188
0.609026 1.238158 -0.898764 192 221 125
0.026779 -0.334390 -0.284766 166 150 153
0.143759 -0.312787 -0.769327 172 151 131
0.763144 -0.480816 0.730527 199 144 198
-1.192784 0.370765 -0.766934 112 182 131
-0.152385 -0.537242 1.703162 158 141 241
-0.296379 -0.259635 -0.250316 152 154 154
0.247328 0.379711 0.646364 176 182 194
-0.164929 -0.122973 1.124198 158 160 215
0.398432 -0.916476 -0.996704 183 124 121
0.860897 0.125626 1.510241 204 171 233
0.183234 0.476366 0.034045 173 187 167
0.613319 -0.539204 -0.169468 193 141 158
-0.108018 -0.033430 -1.051188 160 164 118
0.707197 0.644252 0.950983 197 194 208
-0.654405 0.696189 -1.303437 136 196 107
0.045799 0.135381 -0.571379 167 171 140
-0.218683 -0.648334 -0.114348 155 136 160
-0.606180 -0.640151 0.680076 138 137 196
0.427003 0.625120 -1.147834 184 193 114
0.759146 -1.009066 1.044022 199 120 212
0.287455 -0.086040 -0.374820 178 161 149
-0.061500 0.646065 -0.338209 163 194 150
-0.864240 0.535056 0.455615 127 189 186
1.144238 0.736667 0.622596 216 198 193
-0.266491 -0.729750 -1.494030 153 133 99
0.588369 0.168842 -0.143069 192 173 159
-0.243896 0.339534 0.620047 154 180 193
-0.686543 -0.362434 -0.591889 135 149 139
0.035252 -0.025013 -1.369715 167 164 104
0.043437 0.246525 -1.644736 167 176 92
-0.145809 -0.045628 -0.570886 159 163 140
0.560398 -0.063923 -0.645605 190 162 136
0.548587 -0.170904 -0.978704 190 158 122
-0.210852 0.568204 1.296002 156 191 223
1.560029 -0.599827 -0.043007 235 138 163
0.484368 -0.184500 0.199353 187 157 174
0.446619 -0.107443 -0.601208 185 160 138
-0.585156 -0.986220 -0.253625 139 121 154
-0.042598 -0.087537 1.334450 163 161 225
-0.797812 -0.522586 -1.495058 130 142 99
0.033268 -0.010955 -0.502355 167 165 143
0.208449 -0.516908 -0.313009 175 142 151
0.113418 0.876329 -0.700751 170 204 134
0.369813 -0.922907 -0.894875 182 124 125
0.838433 1.559170 -0.209372 203 235 156
-0.007892 -0.156870 0.389429 165 158 183
0.367551 -0.512343 -0.344662 182 142 150
-0.220886 -0.899234 -0.658769 155 125 136
-0.162610 0.986723 0.964343 158 209 208
0.872785 0.062666 1.469286 204 168 231
0.055457 0.320844 -0.305600 168 180 152
0.412877 -0.684214 0.029785 184 135 167
0.833736 0.421111 -0.714152 202 184 133
-1.302403 -0.246486 0.114029 107 154 170
1.330665 1.073575 -0.096821 225 213 161
0.141357 -0.059605 0.468725 172 163 186
-0.478378 0.158761 -0.668096 144 172 135
-0.000787 -0.077774 -1.073172 165 162 117
0.530705 -0.578807 1.089192 189 139 214
1.688096 -0.011046 0.425636 241 165 184
0.262233 0.359888 0.248061 177 181 176
-0.011518 -0.231411 0.686959 165 155 196
-0.485576 0.615206 -0.631868 144 193 137
-0.671560 0.214426 -1.079203 135 175 117
1.647746 0.090213 -0.589671 239 169 139
-0.352566 0.185749 0.327416 150 174 180
0.286383 -0.699940 0.571482 178 134 191
0.579232 0.800861 0.579428 191 201 191
0.229313 -0.837570 1.095308 175 128 214
-0.414776 1.352743 0.917808 147 226 206
-0.221093 0.559468 0.102887 155 190 170
0.655033 0.006996 0.496498 194 166 187
-0.654310 -0.320928 0.737417 136 151 198
-0.206589 -0.490016 1.355142 156 143 226
1.008906 -0.497948 1.312799 210 143 224
-0.004693 -0.319904 0.390136 165 151 183
0.330943 0.342576 0.687239 180 181 196
-0.200397 -0.285325 1.059426 156 153 213
-0.039223 -0.101658 1.423557 163 161 229
0.183009 0.260021 1.720400 173 177 242
0.296018 -0.444329 -0.209938 178 145 156
0.067090 -0.040894 -0.823634 168 163 128
0.310403 0.934510 -0.325170 179 207 151
-1.082222 0.420787 -0.748467 117 184 132
-0.751964 0.445748 -1.351898 132 185 105
-0.132212 -0.234398 -0.523161 159 155 142
-0.135754 -0.111858 0.795436 159 160 201
0.291069 -0.355034 1.015614 178 149 211
0.112160 -1.285650 -0.701749 170 108 134
-1.045968 -0.251194 1.130916 119 154 216
0.354318 0.271058 0.119125 181 177 171
-0.052849 0.148127 -0.817736 163 172 129
0.315431 0.130133 -0.986340 179 171 121
0.038916 -0.037688 1.373922 167 164 227
1.462207 -0.285804 0.894658 231 152 205
0.221308 -0.038919 0.548393 175 164 190
0.224406 -0.083887 0.692961 175 162 196
-0.543012 -0.168142 -0.965214 141 158 122
-0.028921 0.304866 -1.244055 164 179 110
0.537717 0.990270 -1.083050 189 209 117
-0.044844 -0.106318 0.361391 163 161 181
0.111585 -0.038454 0.704008 170 164 197
0.207540 0.287473 -0.902175 175 178 125
0.685785 0.739267 -1.013146 196 198 120
0.198349 -0.888940 1.583351 174 126 236
-0.077889 0.019545 -0.508662 162 166 143
-0.573476 -0.096111 0.702834 140 161 197
-0.580579 0.116670 1.014229 139 170 211
1.025286 -0.802288 0.664625 211 129 195
0.745915 -0.584629 -1.446338 199 139 101
-0.305727 0.080246 0.393427 152 169 183
0.165922 0.534234 -0.656257 173 189 136
-0.735255 -0.846587 -0.348437 132 127 150
-0.018510 0.148745 1.314076 164 172 224
-1.220926 1.103595 0.101373 111 214 170
-0.157437 -0.339740 -0.190145 158 150 157
-0.223247 -0.437286 -0.622044 155 146 137
-1.051682 0.244158 -0.467134 118 176 144
1.327507 -0.479482 0.284291 224 144 178
1.127433 -1.258427 -0.250755 216 109 154
0.066132 0.121446 0.374045 168 171 182
0.277690 -0.292164 0.768453 178 152 200
-0.438089 0.836062 0.674683 146 203 195
-0.652168 -1.093714 0.566613 136 116 191
0.155348 0.478668 1.579329 172 187 236
0.024812 -0.102489 0.602483 166 161 192
-0.016047 0.026271 0.763466 165 166 199
0.499310 -0.373166 0.851979 188 149 203
-1.423433 -0.266909 0.233513 102 153 176
-0.028999 1.701243 -0.540766 164 241 141
0.021561 -0.239895 0.409882 166 155 184
0.022793 0.810459 -0.138691 166 201 159
-0.022047 -0.359811 -1.007487 164 149 120
-0.118249 -0.687502 1.128269 160 135 216
0.588631 -0.194379 1.592554 192 157 236
0.360015 -0.148681 0.278724 181 159 178
0.151915 -0.308208 -0.787347 172 151 130
0.532072 -0.813319 -0.114808 189 129 160
0.878157 0.104598 -1.050424 204 170 118
1.540775 0.610169 0.625506 234 192 193
0.052579 0.302219 0.331442 168 179 180
0.037371 -0.346543 0.709967 167 150 197
-0.260270 0.998021 -0.519485 154 210 142
1.158026 -0.466702 -0.793837 217 144 130
0.914670 -0.367111 1.372427 206 149 226
-0.262442 -0.442781 -0.338978 154 145 150
-0.549787 0.378240 -0.444781 141 182 145
-0.031829 -0.347805 1.063137 164 150 213
-0.499869 -1.015001 -0.831289 143 120 128
0.884289 1.338659 0.800078 205 225 201
0.345014 0.014643 -0.460096 181 166 145
-0.454545 0.071445 -0.636668 145 168 137
-0.663854 0.900265 -0.044877 136 205 163
-1.049199 0.884262 0.237566 118 205 176
-0.731404 -0.195948 1.522452 133 157 233
0.300161 0.154231 0.258021 179 172 177
0.013518 -0.051474 0.892197 166 163 205
-0.672141 0.890925 -0.197954 135 205 156
1.123779 0.806294 -0.501826 215 201 143
-0.468841 -1.403862 -0.910508 144 103 125
0.123650 -0.391339 0.467116 171 148 186
-0.217619 -0.257954 -0.716443 156 154 133
-0.637253 0.943968 -0.162612 137 207 158
0.482776 0.030524 1.266381 187 167 222
0.023751 -0.029078 1.759461 166 164 244
0.457098 0.031012 0.189750 186 167 174
0.404192 0.090177 -0.760284 183 169 131
0.438651 -0.931324 -0.089130 185 124 161
0.366678 -0.135681 1.266676 182 159 222
0.974585 1.201562 -0.618919 209 219 138
0.161155 0.090237 -0.406326 172 169 147
0.642205 0.351849 0.066603 194 181 168
-0.018849 -1.062119 0.431231 164 118 184
-0.683487 -0.268348 -1.172770 135 153 113
-0.929846 -1.237152 0.798546 124 110 201
0.367448 0.310673 -0.200745 182 179 156
0.022324 -0.111977 0.814336 166 160 202
0.172019 -0.251463 -1.013886 173 154 120
-0.514985 -1.094374 -0.526541 142 116 142
0.082553 0.926913 -1.398177 169 207 103
-0.224841 0.043244 -0.431409 155 167 146
-0.446481 -0.747308 -0.022848 145 132 164
-1.068665 0.265443 -0.283243 118 177 153
0.047618 0.002097 1.444703 167 165 230
-0.011002 -0.550610 -1.680750 165 141 90
-0.522945 0.207674 -0.237864 142 175 155
-0.369635 0.121069 -0.723193 149 171 133
1.049118 0.644949 0.059198 212 194 168
0.078507 -0.028017 1.353250 169 164 226
0.137864 -0.878802 1.464522 171 126 231
0.343565 0.012032 -0.509412 181 166 143
-0.324523 0.061226 -0.808161 151 168 129
-0.191994 0.555762 0.918226 157 190 206
0.095707 -0.307575 1.261457 170 152 222
1.044611 1.405694 0.502967 212 228 188
-0.345343 -0.022723 0.275774 150 164 178
-0.597288 -0.459468 0.286489 139 145 178
-0.570195 -0.434822 -0.837065 140 146 128
0.885452 -0.229278 0.978675 205 155 209
-0.018545 -0.218761 1.760125 164 155 244
-0.417346 -0.206014 0.276508 147 156 178
0.166293 0.158940 -0.689787 173 172 134
0.328500 -0.944902 -0.670330 180 123 135
-0.402872 0.256467 1.398639 147 177 228
0.038914 -0.442464 1.594638 167 146 236
0.231757 0.284130 -0.427987 176 178 146
-0.056109 -0.048947 0.768171 163 163 200
0.470245 -0.102478 1.003097 186 161 210
0.566604 1.221385 -0.555400 191 220 140
0.751346 -0.485583 1.308762 199 144 224
0.053485 0.252863 0.358967 168 177 181
-0.747757 -0.153071 0.008287 132 158 166
-0.094060 0.038133 1.223802 161 167 220
-0.223974 0.566548 1.209840 155 191 219
-1.122875 1.136406 -0.594862 115 216 139
0.493838 0.021500 0.151941 187 166 172
-0.381129 0.550937 -0.311469 148 190 151
0.139128 -0.307428 0.992070 171 152 210
0.027548 0.664565 -1.276007 166 195 108
-0.360332 -0.156864 -1.716560 149 158 89
0.169746 -0.180105 0.436666 173 157 185
0.383552 0.312060 -0.726538 182 179 133
1.081877 -0.054746 0.063593 214 163 168
0.191649 -0.586648 -1.323061 174 139 106
0.640842 0.814270 -1.342537 194 202 105
0.252548 0.114550 -0.283553 177 170 153
0.379484 -0.106517 -0.813337 182 160 129
-0.680591 -0.799339 -0.540535 135 130 141
-0.366139 0.484766 -1.223724 149 187 111
0.058831 -0.046717 1.815455 168 163 246
-0.415199 -0.265101 -0.215489 147 153 156
0.080248 -0.116309 0.745304 169 160 199
0.279776 -0.022897 -1.106906 178 164 116
-1.223707 0.751820 -0.089627 111 199 161
-1.548637 0.588770 -0.391075 96 192 148
0.061233 0.087351 -0.527498 168 169 142
0.840160 0.126150 -0.081162 203 171 162
-0.115741 -0.025429 1.224582 160 164 220
-0.886412 0.807509 -0.605961 126 201 138
0.151440 -0.025155 1.702473 172 164 241
-0.307272 -0.213246 -0.291455 152 156 152
0.199063 0.565751 -0.421350 174 190 146
-0.291750 -0.155147 -1.103675 152 158 116
-0.271652 0.733185 1.256343 153 198 221
0.160042 0.083275 1.688331 172 169 241
0.379622 -0.217012 -0.060550 182 156 163
0.193730 -0.604279 0.532373 174 138 189
0.287928 -0.100008 -0.979915 178 161 122
-0.440294 1.306950 -0.489726 146 224 143
-0.754257 -1.060189 1.015429 132 118 211
-0.145079 0.121093 0.445813 159 171 185
0.005714 -0.391928 0.722232 166 148 197
-0.815939 0.233736 -0.768832 129 176 131
-0.595858 -0.674477 -1.222835 139 135 111
0.008908 -1.434067 -0.730845 166 101 133
0.036289 -0.452337 -0.264339 167 145 153
0.006107 0.008187 0.737757 166 166 198
0.072650 0.140697 0.969898 168 172 209
-0.679865 0.977602 0.607811 135 209 192
-0.173636 0.423555 -1.651185 158 184 92
-0.074843 -0.320459 0.359564 162 151 181
0.160782 0.386014 0.701664 172 182 197
-0.608029 0.142216 0.843336 138 172 203
-0.286516 0.083604 -1.257664 152 169 109
-0.873049 -0.388338 1.338065 126 148 225
0.138080 -0.387944 0.020148 171 148 166
-0.747866 -0.007568 -0.179155 132 165 157
0.133088 -0.973066 -0.418644 171 122 147
-0.665092 -0.139602 -1.091359 136 159 117
-0.769085 -1.165035 0.928716 131 113 207
-0.090282 0.525802 0.219028 161 189 175
0.620533 -0.509797 0.315378 193 143 179
-0.614685 -0.173852 -0.898738 138 157 125
-0.215489 -0.108756 1.357275 156 160 226
-0.928799 -1.027845 1.131465 124 119 216
-0.004020 -0.386166 0.260403 165 148 177
-0.180579 0.015044 0.700814 157 166 197
0.372029 -0.050777 1.083252 182 163 214
0.780567 0.456421 -0.969318 200 186 122
-0.178366 -0.108681 1.716803 157 160 242
0.414463 -0.174028 -0.297933 184 157 152
0.495956 0.521396 0.041982 187 189 167
-0.377203 0.049175 -1.117832 148 167 115
-0.481510 -0.314631 1.190384 144 151 218
-0.162925 1.082573 -1.356312 158 214 105
0.456502 -0.214531 -0.284113 186 156 153
0.022098 -0.571922 0.575513 166 140 191
-0.390657 -0.870032 -0.235858 148 126 155
1.151996 -0.339193 0.574219 217 150 191
0.074251 0.242497 -1.763042 169 176 87
0.264688 0.231634 -0.441311 177 176 146
0.119386 -0.293445 0.691551 171 152 196
-0.374049 0.453490 -1.004972 149 185 120
-0.060931 1.292512 -0.267100 163 223 153
-0.943603 -1.018733 -0.857068 123 120 127
0.024829 -0.011766 0.422748 166 165 184
-0.310179 -0.686325 -0.492015 151 135 143
1.077297 -0.374752 -0.046093 213 149 163
-0.209482 -0.461098 -1.277429 156 145 108
-0.070210 0.086634 -1.695427 162 169 90
0.014370 0.025340 -0.520119 166 166 142
0.671888 0.094851 0.252362 195 169 177
0.696012 -0.431435 -0.680874 196 146 135
-0.516979 0.677177 -0.952373 142 195 123
0.550427 1.556772 -0.666406 190 235 136
0.146259 -0.514278 -0.293316 172 142 152
-0.119787 -0.864565 0.022588 160 127 166
-0.073877 0.007087 1.155592 162 166 217
-0.759215 -0.920432 0.762450 131 124 199
-1.354205 -0.944722 0.377681 105 123 182
-0.319564 0.355223 -0.076406 151 181 162
0.123185 -0.199216 -0.866447 171 156 127
0.699402 0.518828 0.597720 196 188 192
0.360098 0.387374 1.243013 181 183 221
-0.894841 -0.183161 -1.538802 125 157 97
-0.025602 0.047080 -0.353360 164 167 149
0.417401 0.412795 0.601139 184 184 192
-0.734195 -0.894960 -0.236682 132 125 155
-0.000573 -0.218262 1.402502 165 156 228
-0.021909 0.451726 -1.645591 164 185 92
0.118827 0.143561 0.397490 171 172 183
-0.382421 -0.320646 0.690027 148 151 196
-0.915901 -0.718311 0.209283 124 133 175
0.750078 0.445697 -1.044513 199 185 119
-0.569632 0.498934 -1.445086 140 188 101
0.305376 -0.202250 0.126415 179 156 171
-0.361260 -0.048173 0.651198 149 163 194
-0.610116 0.611619 0.820033 138 193 202
-0.237407 0.684387 1.284878 155 196 223
-0.065401 0.048004 1.627043 162 167 238
0.042217 -0.396108 -0.393402 167 148 148
-0.248901 0.071092 0.728880 154 168 198
0.744371 -0.790374 0.207930 198 130 175
-1.063075 0.376770 0.814439 118 182 202
1.557868 -0.831270 -0.369950 235 128 149
-0.012049 -0.022577 0.471369 165 164 186
0.162208 0.231521 -0.717984 172 176 133
0.321201 0.151795 0.904122 180 172 206
-1.084257 -0.735963 0.576903 117 132 191
0.015951 -0.111803 1.825731 166 160 247
-0.003571 0.050913 -0.448711 165 168 145
0.044546 -0.274582 0.775183 167 153 200
0.222875 -0.162292 1.134651 175 158 216
-0.910743 -0.795573 -0.932157 125 130 124
-0.004938 0.045883 -1.581195 165 167 95
0.345079 -0.217228 -0.093523 181 156 161
-0.774826 -0.155840 0.167162 131 158 173
1.065329 -0.127615 0.158896 213 160 172
-0.831462 0.732244 0.943557 128 198 207
0.601785 -1.446565 -0.702835 192 101 134
-0.117824 -0.268501 0.373960 160 153 182
-0.194452 -0.742216 0.183422 157 132 173
-0.054350 0.387067 -1.168570 163 183 113
0.527724 -0.232226 1.234392 189 155 220
-1.500884 -0.305224 0.717965 98 152 197
-0.358045 0.330449 0.073212 149 180 169
-0.123796 -0.714678 -0.170168 160 133 158
-0.697215 0.818192 0.036584 134 202 167
-0.902678 1.066390 0.238517 125 213 176
0.324610 0.896782 -1.385881 180 205 103
0.319354 -0.303826 0.339039 180 152 180
-0.464410 -0.131638 -0.717895 145 159 133
0.233734 1.062283 -0.167099 176 213 158
0.163290 -0.085929 -1.286448 173 161 108
1.006103 1.260498 -0.231834 210 221 155
0.111571 0.152379 0.374803 170 172 182
0.070723 0.230065 0.787157 168 176 200
1.004723 0.354122 0.275970 210 181 178
-0.553568 1.040987 0.483903 141 212 187
1.178531 -0.145711 -1.280587 218 159 108
-0.369149 -0.094666 0.204449 149 161 174
-0.046028 -0.484966 0.753469 163 144 199
0.689000 -0.881503 -0.161303 196 126 158
0.063977 -0.401273 1.329034 168 147 225
-0.018830 -0.132139 -1.725176 164 159 88
0.246794 0.152627 0.473956 176 172 186
0.266415 -0.706085 -0.434055 177 134 146
-0.079952 1.032397 -0.662492 162 211 136
-1.135790 -0.407863 -0.572746 115 147 140
0.008504 -0.138932 -1.606001 166 159 94
-0.115810 0.081259 -0.355697 160 169 149
0.442825 -0.766975 0.000813 185 131 165
-0.982618 0.437939 0.397982 121 185 183
-1.246775 -0.715872 0.215272 110 133 175
1.676421 -0.236078 -0.563552 240 155 140
0.021159 -0.070282 -0.545170 166 162 141
0.149358 -0.316015 0.838865 172 151 203
0.142926 -0.857402 -0.845438 172 127 128
0.257917 -1.408851 0.344929 177 102 181
0.968903 -0.056259 -1.498419 208 163 98
0.407156 0.121968 0.247287 183 171 176
0.326260 -0.165689 -0.646013 180 158 136
-0.147056 -0.608353 0.814721 159 138 202
-0.946238 0.304019 0.915121 123 179 206
0.792052 -0.803817 -1.317611 201 129 106
-0.187075 0.076691 -0.501782 157 169 143
-0.357746 -0.128090 -0.762775 149 160 131
0.249543 -0.158937 0.996106 176 158 210
-0.712666 1.129527 0.376001 133 216 182
-0.067760 1.434309 0.656952 162 229 195
-0.454395 -0.045526 0.030923 145 163 167
-0.147876 -0.334057 0.653674 159 150 194
0.025998 -0.206701 -1.027592 166 156 119
0.511998 -0.803649 1.039018 188 129 212
1.062470 0.786380 1.095768 213 200 214
0.406262 -0.118342 0.499751 183 160 188
-0.055432 0.833944 -0.029803 163 202 164
-0.198100 0.707940 -0.738011 156 197 132
-0.284392 -0.049140 1.328510 153 163 225
-0.669259 1.598384 0.208658 135 237 175
0.088704 0.409668 -0.314536 169 184 151
-0.011541 0.323843 -0.690629 165 180 134
0.797908 0.406802 0.397781 201 183 183
-0.020341 -0.023650 1.285989 164 164 223
0.619422 -0.988393 1.132336 193 121 216
-0.123786 -0.235310 0.368497 160 155 182
0.368207 -0.261258 0.712360 182 154 197
-0.943443 -0.272362 -0.287838 123 153 152
0.962956 -0.750591 -0.693274 208 132 134
1.082819 0.962999 0.783322 214 208 200
-0.406531 0.024965 -0.428891 147 166 146
0.663696 0.016338 -0.418351 195 166 147
-0.577253 0.888877 0.292861 139 205 178
0.248444 -0.258522 -1.323447 176 154 106
-0.041679 0.045407 -1.700810 163 167 89
-0.010573 -0.012698 0.430783 165 165 184
-0.784539 0.264092 0.119604 130 177 171
0.392132 0.966541 -0.252514 183 208 154
-0.582244 0.800957 -1.057758 139 201 118
-1.079841 -0.418659 -1.229376 117 147 110
0.015245 -0.515426 -0.271817 166 142 153
-0.117806 0.670109 -0.394342 160 195 148
0.752832 0.717757 0.517225 199 197 188
-0.044061 -0.572851 1.199614 163 140 219
-0.393084 1.443019 -0.896948 148 230 125
0.006632 0.243734 -0.345844 166 176 150
0.554643 -0.194795 0.387964 190 157 183
-0.451772 -0.486767 1.034244 145 144 211
-0.324291 1.041537 1.016924 151 212 211
1.147165 -0.705632 -0.907017 216 134 125
-0.032274 0.320494 0.480837 164 180 187
0.329941 -0.263561 0.684017 180 153 196
-0.790116 0.089669 -0.961223 130 169 122
0.048236 0.221338 -1.503635 167 175 98
0.612661 -0.720766 -1.300477 193 133 107
-0.405174 0.116276 -0.159057 147 170 158
0.279170 0.185459 -0.644888 178 174 136
-0.203363 -0.076403 -1.043683 156 162 119
0.350870 0.024746 -1.328289 181 166 106
1.103559 0.349579 1.232562 214 181 220
-0.292557 -0.339097 -0.425535 152 150 146
0.427409 -0.024703 -0.699876 184 164 134
0.105212 0.474026 0.959193 170 186 208
1.347283 -0.290509 0.473691 225 152 186
1.501664 -0.887039 0.471393 232 126 186
0.056266 0.033592 0.567406 168 167 191
0.061363 -0.003425 -0.917986 168 165 124
-0.793071 -0.293941 -0.629699 130 152 137
-1.020473 -1.083587 -0.226836 120 117 155
-0.100423 1.051044 -1.212957 161 212 111
-0.114734 0.305941 0.398560 160 179 183
-0.758331 0.405633 -0.113103 131 183 160
-0.086617 0.338157 1.041207 161 180 212
-0.222542 0.334114 -1.427712 155 180 102
0.304286 0.247307 -1.616574 179 176 93
-0.311646 -0.241123 -0.321380 151 154 151
0.019278 0.040765 -0.804728 166 167 129
0.481593 0.618080 0.797492 187 193 201
0.925807 1.015280 -0.082279 207 211 162
0.954958 0.697878 -1.225122 208 196 111
0.384614 0.374768 0.106977 182 182 170
-0.628253 -0.264528 -0.607165 137 153 138
-0.247297 -0.019943 1.038144 154 164 212
-0.173109 -0.178344 1.317535 158 157 224
1.055845 1.264242 0.438722 212 222 185
0.483915 0.326730 -0.022784 187 180 164
-0.458371 0.197169 -0.553707 145 174 141
0.310066 0.841032 0.765437 179 203 199
-1.139085 0.845915 -0.109154 114 203 160
-1.196951 0.382731 1.039526 112 182 212
0.028091 0.106912 0.584277 167 170 191
-0.344696 -0.001395 0.702672 150 165 197
0.012612 -0.952310 0.259907 166 123 177
0.326272 -0.004936 1.304160 180 165 223
-1.114755 -1.178361 0.242569 116 113 176
-0.323329 0.035938 -0.274269 151 167 153
0.170717 -0.077648 0.874147 173 162 204
0.046617 0.118914 -1.206584 167 171 111
-0.045685 -0.446664 1.400410 163 145 228
-0.307111 -0.314674 -1.620754 152 151 93
0.500585 -0.034350 0.089103 188 164 169
-0.576844 -0.437167 -0.304706 140 146 152
-0.840555 -0.534828 0.353049 128 141 181
-1.298537 0.428680 -0.486397 107 184 144
-0.872378 -1.473485 -0.481936 126 99 144
0.107169 0.006309 0.475442 170 166 186
-0.288306 -0.185811 0.723287 152 157 198
0.528394 -1.047607 0.172974 189 119 173
0.733224 -0.420562 1.076693 198 146 213
-0.757978 0.093709 1.540760 131 169 234
0.173179 0.422608 -0.114047 173 184 160
-0.413260 0.697477 0.349512 147 196 181
-0.021751 0.039687 -1.097575 164 167 116
0.510650 -0.647365 1.044062 188 136 212
0.332209 -1.110745 1.428435 180 116 229
-0.112448 0.117493 0.451351 160 170 185
-0.003140 -0.210804 -0.856149 165 156 127
0.208083 0.321650 -1.120082 175 180 115
-0.215204 1.404014 -0.278259 156 228 153
-1.680316 -0.286751 0.445967 90 152 185
0.386619 0.076188 -0.428732 183 169 146
0.209511 0.396312 -0.556064 175 183 140
-0.280926 0.275735 -1.070494 153 178 117
-1.282341 -0.451201 -0.649541 108 145 136
1.069599 -0.023322 -1.399941 213 164 103
-0.235418 -0.060215 -0.532025 155 163 142
-0.770023 -0.367670 -0.018578 131 149 164
-0.332035 1.076339 -0.374454 150 213 149
-1.352396 0.076686 0.284155 105 169 178
-0.333991 -0.679173 1.570274 150 135 235
-0.099596 0.111513 0.545833 161 170 190
-0.020964 -0.191460 -0.758439 164 157 131
-0.747536 -0.229038 -0.788983 132 155 130
0.413317 0.935619 -0.814655 184 207 129
0.278507 -0.105084 -1.566497 178 161 95
0.062600 0.114350 0.441386 168 170 185
-0.487846 0.118864 -0.559854 143 171 140
0.250974 -0.281875 -1.054283 176 153 118
-0.600542 0.315156 -1.280863 138 179 108
-0.121568 0.748422 1.524705 160 199 233
-0.421635 0.376609 0.155712 146 182 172
-0.323256 0.300625 0.620262 151 179 193
0.213346 0.777293 -0.643892 175 200 137
0.339229 0.372431 -1.374468 180 182 104
0.742205 -1.270096 -0.977416 198 109 122
0.145620 -0.128920 -0.370439 172 159 149
-0.184097 0.114962 -0.662909 157 170 136
-0.213205 0.076244 0.973748 156 169 209
0.207280 -0.996204 -0.956087 174 121 123
-0.644458 -1.271222 0.815062 136 109 202
0.159144 -0.145161 0.490772 172 159 187
0.183519 -0.430547 -0.660085 173 146 136
0.036115 0.041972 -1.190701 167 167 112
-1.035638 -0.854535 -0.206669 119 127 156
0.595946 1.419142 0.711690 192 229 197
-0.033156 0.023813 -0.625475 164 166 137
-0.125511 -0.081114 -0.916704 160 162 124
0.246481 -0.563060 0.863066 176 140 204
0.938418 0.726491 0.545905 207 198 190
0.095028 -0.890836 -1.407124 169 125 102
0.097387 -0.167186 -0.590028 170 158 139
0.284885 -0.580043 0.513323 178 139 188
0.746969 -0.772579 0.094678 199 131 169
-0.183915 -1.171638 -0.832340 157 113 128
-0.703634 -1.294484 -0.710085 134 107 134
-0.194889 0.497266 0.170937 157 187 173
0.481722 -0.494988 0.092492 187 143 169
0.232269 -1.020849 -0.092922 176 120 161
1.146492 -0.734629 0.463912 216 132 186
0.895983 1.411467 -0.286187 205 228 152
-0.135331 -0.275975 -0.342855 159 153 150
-0.762473 0.393033 0.085004 131 183 169
0.035322 -1.006362 0.380088 167 120 182
0.822179 0.291434 -1.205879 202 178 111
-0.620753 0.229765 1.536399 138 176 234
0.143465 0.316481 0.294960 172 179 178
0.455136 0.222227 0.585668 186 175 191
-0.051542 -0.711323 0.883894 163 134 205
0.086079 0.419231 -1.351356 169 184 105
-0.302981 -1.619485 -0.582209 152 93 139
-0.141444 0.079156 0.423536 159 169 184
0.667962 0.111900 0.330032 195 170 180
0.706529 0.125003 -0.865313 197 171 127
-0.211396 -1.351671 -0.384817 156 105 148
0.058262 0.544579 1.538626 168 190 234
-0.280146 0.010695 0.406134 153 166 183
0.225284 -0.391849 -0.594478 175 148 139
-0.428100 -0.993051 -0.018579 146 121 164
-1.029748 -0.685022 -0.747362 119 135 132
-0.952885 0.006449 -1.421301 123 166 102
0.007100 -0.308924 0.364969 166 151 182
0.337374 -0.290468 -0.615233 180 152 138
-0.859237 -0.240826 0.519463 127 155 188
-1.000992 0.487949 0.947277 121 187 208
-0.338031 -0.073556 -1.701316 150 162 89
0.292980 -0.290408 0.131815 178 152 171
-0.128605 0.071648 -0.877888 160 168 126
-0.028908 0.244479 -1.016111 164 176 120
-0.508323 0.659794 -1.166607 143 195 113
-0.663100 1.167508 -0.887791 136 217 126
-0.194072 -0.027248 -0.398208 157 164 147
0.397550 0.105271 0.720000 183 170 197
-1.013243 -0.076186 0.066131 120 162 168
1.130980 -0.817466 -0.404845 216 129 147
0.063663 0.904428 -1.591685 168 206 94
-0.275323 0.162280 -0.235544 153 172 155
0.187557 0.235590 -0.838968 174 176 128
-0.033073 0.036480 -1.064855 164 167 118
-0.998825 0.378794 0.777863 121 182 200
0.365999 -1.327724 1.053329 182 106 212
-0.459875 0.085648 -0.088717 145 169 161
0.795619 -0.368174 -0.216456 201 149 156
0.189053 -0.152891 -1.036920 174 158 119
-0.611450 -0.307759 1.339525 138 152 225
-0.050363 0.291455 -1.584355 163 178 95
-0.341613 -0.262957 0.069384 150 154 168
0.691245 -0.455114 -0.106277 196 145 161
-0.759955 0.167332 -0.750006 131 173 132
-0.093917 0.058854 1.341594 161 168 225
-1.381692 1.114328 0.313855 104 215 179
-0.390566 -0.217197 -0.068413 148 156 162
-0.381973 0.400281 0.641933 148 183 194
0.175687 0.673697 0.884885 173 195 205
-0.042770 -0.042323 -1.489029 163 163 99
0.017609 -0.031807 1.821744 166 164 247
0.393134 0.296685 -0.356375 183 178 149
-0.605688 0.422223 -0.442058 138 184 146
0.566741 -0.107345 -0.982980 191 160 121
-0.339472 0.067377 -1.339573 150 168 105
0.017576 -0.004324 -1.649485 166 165 92
-0.081399 0.354755 0.043430 162 181 167
0.054381 0.078315 0.750231 168 169 199
0.733691 0.484165 -0.606261 198 187 138
0.100403 0.001344 -1.366754 170 165 104
-0.344093 0.637326 1.615126 150 194 237
-0.013959 -0.020552 0.411276 165 164 184
-0.493464 0.524159 0.229732 143 189 176
0.844032 0.372517 -0.651194 203 182 136
0.062862 0.020425 1.466910 168 166 231
-1.593088 0.497260 -0.229369 94 187 155
0.247394 0.409523 -0.310446 176 184 151
-0.342149 -0.462305 0.542138 150 145 189
0.996641 -0.277365 0.161893 210 153 172
-0.004148 0.633294 -1.173276 165 194 113
0.664090 0.315429 -1.584669 195 179 95
0.457363 -0.127156 0.325421 186 160 180
-0.762747 0.006864 0.156841 131 166 172
-0.149190 0.073245 -1.041435 159 169 119
-0.824552 -1.227229 0.142222 128 110 172
1.041248 -0.126011 -1.197586 212 160 112
-0.129905 0.536801 -0.085885 159 189 161
0.591128 -0.536916 0.146885 192 141 172
-0.553268 0.175834 1.000106 141 173 210
1.345202 -0.005472 0.713777 225 165 197
0.940387 1.282252 0.607983 207 222 192
0.006349 0.039047 0.477626 166 167 187
-0.627437 0.583439 0.317308 137 191 179
-0.536768 -0.687590 0.614625 141 135 193
0.382125 1.267880 0.392402 182 222 183
-1.541989 -0.022143 0.901229 96 164 205
-0.348212 -0.214644 -0.300171 150 156 152
-0.437004 0.745821 0.063678 146 199 168
0.760209 0.260175 -0.623648 199 177 137
0.051497 -0.506308 -1.333702 168 143 106
0.681502 -1.317840 -0.786842 196 106 130
-0.154339 -0.335699 0.257123 158 150 177
0.746029 -0.277818 0.117164 199 153 170
-0.376341 0.441545 0.896996 148 185 205
-0.250082 1.243939 -0.720068 154 221 133
0.209119 -1.647776 0.279053 175 92 178
0.369839 -0.234981 0.118718 182 155 171
0.365933 0.184979 0.610267 182 174 192
0.863883 0.841189 -0.063891 204 203 162
-0.771114 0.652958 1.105544 131 194 215
-0.703725 -0.590639 -1.478642 134 139 99
0.038076 -0.006534 -0.543905 167 165 141
0.066496 0.173936 0.833280 168 173 202
0.572495 -0.253261 -0.794115 191 154 130
-0.227518 -1.376986 -0.259089 155 104 154
1.165065 -0.350908 -1.291940 217 150 108
0.493955 -0.175729 0.108557 187 157 170
-0.436302 -0.584881 0.263570 146 139 177
-0.725685 0.244886 0.817311 133 176 202
0.013602 0.513704 -1.425418 166 188 102
-0.117392 -1.203039 -1.280874 160 112 108
-0.328139 0.171365 0.171672 151 173 173
0.269964 -0.312235 0.687263 177 151 196
-0.552982 1.005190 -0.068403 141 210 162
0.557314 1.159975 0.222241 190 217 175
0.995719 0.640257 1.200764 210 194 219
-0.317108 0.273538 -0.082458 151 177 162
0.330115 -0.094248 -0.605388 180 161 138
0.421501 0.042269 1.044897 184 167 212
0.059175 0.616577 1.284267 168 193 223
1.250152 -0.650461 -0.743409 221 136 132
0.378120 -0.219181 0.228660 182 155 175
-0.584774 0.017332 0.537669 139 166 189
-1.093887 -0.387862 0.092751 116 148 169
0.145463 0.667529 1.261933 172 195 222
-0.619892 1.446111 -0.354484 138 230 149
0.501057 0.226388 0.026330 188 175 166
0.076004 0.070110 -0.741331 169 168 132
-0.033995 -1.017445 -0.292863 164 120 152
0.062969 0.885533 -1.165641 168 205 113
-0.035541 1.443522 0.912756 164 230 206
0.135443 -0.349813 0.105737 171 150 170
-0.809851 0.074990 0.237199 129 169 176
-1.045845 -0.479819 0.277436 119 144 178
0.687727 0.622521 -0.925339 196 193 124
-0.098487 -0.207358 1.797473 161 156 245
0.334532 -0.156201 0.231055 180 158 176
-0.199493 0.747193 0.086750 156 199 169
0.535423 -0.114399 -0.907471 189 160 125
0.600549 -0.977463 -0.731590 192 122 133
0.668013 -0.731767 -1.433999 195 133 101
-0.036583 0.081323 0.471134 164 169 186
-0.512577 0.689641 -0.010717 142 196 165
-0.632045 0.551691 0.596250 137 190 192
1.033331 -0.352220 -1.023114 211 150 120
-0.336310 -1.290565 0.930815 150 108 207
0.202702 -0.144204 -0.529645 174 159 142
0.129447 -0.786148 0.106352 171 130 170
0.574503 0.287790 -0.954562 191 178 123
-0.279621 0.531807 -1.232121 153 189 110
-0.371331 -0.460166 1.530065 149 145 234
-0.013360 0.023957 0.418371 165 166 184
-0.104968 -0.840430 -0.315576 161 128 151
0.063516 -1.011399 -0.500160 168 120 143
1.024903 0.699266 -0.388574 211 196 148
-0.555013 -0.312101 1.690313 140 151 241
-0.057358 0.028043 -0.441623 163 167 146
-0.359364 -0.362495 -0.567941 149 149 140
0.119599 0.049728 1.024961 171 167 211
0.215382 -1.249463 -0.728058 175 109 133
-0.556698 0.074459 1.528563 140 169 233
0.501971 0.182557 0.225788 188 173 175
-0.144734 0.413938 -0.527723 159 184 142
0.511481 0.153899 -0.938916 188 172 123
0.267273 0.065585 -1.294018 177 168 108
-1.680660 -0.002355 -0.691770 90 165 134
0.146569 -0.280461 -0.329495 172 153 151
-0.610087 0.276720 0.583485 138 178 191
0.925645 0.028921 -0.225985 207 167 155
0.652189 0.967204 0.608066 194 208 192
0.643218 0.540154 1.599976 194 189 237
-0.218219 -0.487127 -0.343611 156 144 150
0.128284 -0.175127 -0.761771 171 157 131
-0.308878 -1.042249 0.529932 151 119 189
0.666276 0.786747 -1.089650 195 200 117
-1.360501 0.220773 -0.973672 105 175 122
0.002998 -0.016951 0.426999 165 164 184
-0.240868 0.719353 -0.423243 155 197 146
0.290717 -0.807044 -0.825385 178 129 128
-0.386866 0.891111 1.083787 148 205 214
1.389450 0.521507 -0.512696 227 189 142
-0.198883 0.412664 -0.275354 156 184 153
0.552920 -0.656795 -0.266357 190 136 153
-0.674395 0.758845 0.478562 135 199 187
-1.258675 0.624173 -0.472815 109 193 144
0.157829 -1.745165 -0.240385 172 87 155
0.175517 0.413454 -0.445592 173 184 145
-0.037348 0.027290 -0.796206 164 166 130
-0.181783 0.109315 -1.050543 157 170 118
0.198898 1.034510 -0.843540 174 211 128
-0.311568 -0.971789 -1.245840 151 122 110
0.510274 0.217576 -0.197423 188 175 156
0.640421 0.108563 -0.386501 194 170 148
0.765970 -0.260795 -0.607935 199 154 138
0.983382 0.401315 0.981935 209 183 209
-0.368926 -0.351140 1.674576 149 150 240
-0.041377 -0.483283 0.215654 163 144 175
-0.421172 -0.462947 0.400020 146 145 183
0.052029 0.335589 1.129370 168 180 216
0.681226 -1.102694 0.685356 196 116 196
-1.560450 -0.602082 -0.541482 96 138 141
0.130976 0.357245 0.001696 171 181 165
-0.261019 0.746894 0.286231 154 199 178
0.451122 0.229601 0.973094 185 175 209
0.102886 0.917313 -0.993823 170 206 121
0.724257 0.754190 -1.365709 198 199 104
0.140668 -0.262457 0.282681 172 154 178
-0.072011 -0.840900 -0.288807 162 128 152
0.082148 0.467574 -1.032469 169 186 119
-0.957350 -0.246255 1.026463 123 154 211
0.286776 -1.313175 -1.099903 178 107 116
-0.194338 -0.519236 -0.199659 157 142 156
-0.097326 -0.144525 0.817310 161 159 202
0.078468 0.276639 1.095223 169 178 214
0.484104 -0.144647 -1.223511 187 159 111
0.968815 0.523920 -1.260765 208 189 109
0.527300 -0.149574 0.048592 189 159 167
0.366297 0.507701 -0.373173 182 188 149
0.269773 0.859261 -0.833180 177 204 128
-0.062118 0.118736 1.483045 162 171 231
1.603446 -0.438142 -0.297085 237 146 152
-0.259241 -0.064729 0.575450 154 162 191
0.540113 -0.455927 0.007639 189 145 166
-0.989011 0.104175 -0.696529 121 170 134
-0.121078 -0.015321 -1.415951 160 165 102
-1.136252 0.923833 -0.825008 115 206 128
0.061018 0.107240 0.352008 168 170 181
0.471906 0.518797 -0.185967 186 188 157
-0.397108 -0.077417 1.018582 148 162 211
1.275392 -0.414174 -0.275285 222 147 153
0.024621 -0.088634 -1.666940 166 161 91
-0.019323 -0.226968 -0.567937 164 155 140
-0.292880 0.651699 0.127676 152 194 171
-0.579805 -0.618919 0.895545 139 138 205
-1.437621 0.148466 -0.072311 101 172 162
1.252833 -0.443910 -1.011274 221 145 120
0.056108 0.407462 0.115649 168 183 170
-0.211906 0.008158 0.656370 156 166 195
0.821072 0.084779 0.767057 202 169 199
-0.112005 -0.029647 1.309326 160 164 224
0.557626 1.298801 -0.911504 190 223 125
0.235935 -0.143521 -0.326716 176 159 151
-0.238046 -0.150830 0.666135 155 159 195
-0.677689 -0.871580 -0.314976 135 126 151
-0.008914 -0.179306 -1.404446 165 157 103
1.567133 0.387084 -0.167923 235 183 158
-0.047524 0.048322 -0.500083 163 167 143
-0.200665 0.650029 -0.293172 156 194 152
0.155136 0.185479 1.041065 172 174 212
1.280644 -0.466394 -0.153266 222 144 158
-0.839742 -1.369139 -0.474572 128 104 144
0.233094 -0.048148 -0.379313 176 163 148
0.672250 0.300684 -0.120109 195 179 160
-0.894485 0.105684 -0.635574 125 170 137
-1.051808 -0.809437 0.250784 118 129 176
-0.001131 -0.048522 -1.624862 165 163 93
-0.248127 -0.249328 -0.247111 154 154 154
0.404488 -0.613279 -0.151495 183 138 158
-0.287323 -0.596798 0.855030 152 139 203
-0.208846 0.286256 1.389348 156 178 227
-0.026284 0.036757 -1.749496 164 167 87
0.321046 -0.162013 0.023847 180 158 166
0.158072 -0.407623 -0.603759 172 147 138
0.028668 -0.039310 -1.073143 167 163 117
-0.017383 -0.008261 1.358013 164 165 226
-0.463972 0.957643 -1.358398 145 208 105
-0.037722 -0.035313 -0.551742 164 164 141
0.140160 0.251707 0.649454 172 176 194
0.140649 0.236949 -1.005931 172 176 120
-0.603227 -1.202468 -0.007807 138 112 165
-0.110719 0.041520 -1.684125 160 167 90
-0.374593 0.018413 -0.339676 149 166 150
0.107439 -0.040742 -0.863343 170 163 127
-0.560979 0.690443 -0.539027 140 196 141
1.248504 -0.585024 -0.120403 221 139 160
0.711331 -0.109793 1.391768 197 160 227
-0.374732 0.443259 0.124735 149 185 171
-0.024285 -0.025718 -0.746630 164 164 132
-0.782553 0.731808 -0.466668 130 198 144
0.013501 -0.023993 -1.385225 166 164 103
-1.442629 1.007784 0.134719 101 210 171
-0.029484 0.138394 -0.321946 164 171 151
-0.445446 0.025199 0.581168 145 166 191
0.851959 -0.296183 0.414029 203 152 184
0.020951 1.019695 0.842294 166 211 203
-0.302109 0.109995 -1.587385 152 170 94
0.350628 -0.181428 0.318616 181 157 179
0.418807 0.730685 -0.018761 184 198 164
0.060651 -0.079122 1.132125 168 162 216
0.842452 -0.086251 1.156100 203 161 217
-0.682285 0.135506 1.645317 135 171 239
0.201812 0.471410 0.258143 174 186 177
-0.091074 -0.097175 -0.824639 161 161 128
0.541354 0.634824 -0.675778 189 194 135
0.618753 -0.955458 -0.596135 193 123 139
1.514377 -0.007164 -0.417469 233 165 147
-0.001261 0.013114 -0.484031 165 166 144
0.194994 -0.733182 -0.255557 174 133 154
-1.019300 -0.406109 -0.137100 120 147 159
0.603918 -0.979790 0.931215 192 122 207
0.164008 -0.832179 -1.402292 173 128 103
0.215055 0.171513 -0.342702 175 173 150
0.311052 0.666953 0.220362 179 195 175
-0.145651 -0.987746 -0.343500 159 121 150
-1.112826 0.037195 0.781051 116 167 200
-0.523075 0.726109 1.544997 142 198 234
0.490895 0.020193 0.351733 187 166 181
-0.084049 0.373648 -0.790770 161 182 130
0.485011 -0.861375 0.582373 187 127 191
0.457068 0.270746 1.231807 186 177 220
-0.030968 -0.506286 -1.721459 164 143 88
-0.094898 -0.183518 0.560352 161 157 190
-0.183826 0.176315 0.705853 157 173 197
-0.773096 0.234082 -0.717728 131 176 133
0.714880 -1.247775 0.079623 197 110 169
-0.684230 0.604599 1.365591 135 192 226
0.160726 -0.033857 0.478355 172 164 187
-0.064483 0.421087 -0.783638 162 184 130
0.634173 -0.605789 0.753128 194 138 199
-0.394214 0.477515 1.307398 148 187 224
-0.145514 -0.964031 -1.279663 159 122 108
-0.272645 0.227669 -0.262977 153 175 154
0.392118 -0.366665 0.487324 183 149 187
0.573320 0.617089 -0.639592 191 193 137
-0.233889 -0.074928 1.468608 155 162 231
0.298655 1.019796 -1.274521 179 211 108
-0.022058 -0.045573 0.406384 164 163 183
-0.218758 -0.608894 -0.404333 155 138 147
-0.054004 0.136573 -1.076410 163 171 117
1.236386 -0.186822 -0.299573 220 157 152
1.647516 0.155093 -0.450065 239 172 145
-0.338618 0.109349 0.215826 150 170 175
-0.237548 0.403490 -0.499884 155 183 143
-0.575077 -0.646043 -0.682917 140 136 135
-0.542955 -0.385845 1.225017 141 148 220
-0.281679 -0.692272 1.596682 153 134 237
0.002893 0.005713 0.533733 165 166 189
-0.130844 0.738209 0.029518 159 198 167
-0.183819 -1.042740 -0.001121 157 119 165
-0.456915 0.003312 -1.433287 145 165 101
-1.675017 0.197612 -0.458822 91 174 145
-0.333843 0.053630 0.467394 150 168 186
-0.178715 -0.461585 -0.665851 157 145 136
-0.708877 -0.481649 -0.783355 134 144 130
0.083507 -1.065812 -0.832616 169 118 128
1.361549 0.028835 1.048205 226 167 212
0.454025 -0.123093 -0.181376 186 160 157
-0.842545 -0.115871 0.166294 128 160 173
0.323974 -1.024570 0.172920 180 120 173
0.208365 0.187090 -1.416726 175 174 102
-0.148170 0.241673 -1.616952 159 176 93
-0.050380 -0.195416 -0.596029 163 157 139
-0.337886 -0.481340 -0.496048 150 144 143
-0.059187 0.681580 0.853971 163 196 203
0.095691 0.151594 -1.440744 170 172 101
0.636601 0.270656 1.471123 194 177 231
0.176612 -0.069664 0.431935 173 162 185
-0.163868 0.244210 0.660575 158 176 195
0.013613 0.032860 -1.201985 166 167 112
0.233966 1.464037 0.049715 176 231 167
-0.855887 -0.042133 1.350368 127 163 226
-0.284909 0.267020 0.418282 153 177 184
-0.514452 -0.024546 0.510354 142 164 188
-0.029305 0.047081 1.236706 164 167 220
-0.336040 1.284276 -0.275207 150 223 153
-1.367619 0.417895 0.884561 104 184 205
0.104571 -0.313115 -0.267523 170 151 153
-0.029950 0.712804 0.183960 164 197 173
0.096114 -0.009388 1.112831 170 165 215
0.642601 1.093697 -0.623403 194 214 137
0.805101 -0.722946 -1.404816 201 133 103
-0.289868 0.256357 0.377881 152 177 182
-0.231468 -0.724538 -0.198160 155 133 156
-0.423948 -0.075887 -0.935767 146 162 123
-0.184666 0.719041 1.114215 157 197 215
1.222210 -0.213458 -1.340444 220 156 105
-0.132936 0.240127 -0.478512 159 176 144
-0.195671 -0.615313 -0.486549 157 138 144
-0.849868 0.468325 -0.206420 127 186 156
1.202352 0.677601 0.146889 219 195 172
-0.870929 0.269419 1.595098 126 177 236
-0.056604 0.087517 0.564172 163 169 190
-0.063709 -0.152726 0.678122 162 158 196
-0.326997 0.993300 0.239010 151 210 176
0.576960 -0.247683 -1.234539 191 154 110
0.989073 0.334391 -1.509448 209 180 98
0.224459 0.391932 0.038505 175 183 167
0.102316 0.336395 -0.785053 170 180 130
-1.150093 -0.090451 -0.017205 114 161 164
0.507852 -0.120985 -1.334669 188 160 106
-1.076353 1.255599 0.071677 117 221 168
0.346434 0.322438 -0.013799 181 180 165
0.570956 0.193847 -0.441117 191 174 146
-0.473940 -0.702966 -0.496814 144 134 143
0.314486 -1.360471 -0.348970 179 105 150
0.702607 1.183028 -1.117449 197 218 115
-0.031420 -0.005414 -0.397365 164 165 148
-0.616554 0.312587 -0.374566 138 179 149
0.180717 -0.319394 -0.932700 173 151 124
0.553336 0.611677 1.098745 190 193 214
-0.041324 0.075906 1.664276 163 169 240
-0.023593 0.012918 0.445324 164 166 185
-0.329286 0.807916 0.134001 151 201 171
-0.246963 -0.386195 1.009497 154 148 210
0.089153 0.038473 -1.417156 169 167 102
-0.808115 -1.355148 -0.715233 129 105 133
-0.006139 0.017787 -0.445436 165 166 145
0.275496 -0.719446 -0.369626 178 133 149
0.094975 0.050175 0.996919 169 167 210
